467 516 496 543 584 565 510 458 462 476 424 445 427 341 282 192 94 -7 -80 -149 -211 -248 -233 -235 -274 -216 -180 -177 -115 -32 -39 -70 -133 -114 -71 -35 26 73 47 69 68 30 7 20 24 5 -104 -261 -300 -300 -300 -300 -300 -300 -300 -300 -300 -300 -300 -300 -300 -300 -300 -300 -300 -300 -300 -300 -300 -300 -300 -300 -300 -300 -300 -300 -300 -227 -100 14 122 149 204 298 430 550 652 733 807 778 765 834 891 882 924 913 943 934 911 821 713 637 525 473 409 417 407 394 430 398 293 247 205 152 116 11 -114 -252 -286 -265 -227 -210 -221 -224 -209 -295 -300 -300 -300 -300 -300 -300 -300 -300 -300 -300 -300 -300 -300 -300 -300 -300 -300 -300 -300 -300 -300 -300 -300 -300 -300 -300 -300 -300 -300 -300 -300 -300 -300 -300 -300 -300 -300 -300 -300 -300 -300 -300 -300 -300 -300 -300 -300 -300 -300 -300 -300 -300 -300 -300 -300 -300 -300 -300 -300 -300 -300 -300 -300 -300 -300 -300 -278 -273 -273 -300 -300 -300 -300 -300 -300 -300 -300 -300 -300 -300 -300 -300 -300 -300 -300 -300 -300 -300 -300 -300 -300 -300 -300 -300 -300 -300 -300 -300 -300 -300 -300 -300 -300 -300 -300 -276 -189 -126 -74 -38 -67 -113 -174 -182 -173 -250 -264 -254 -266 -294 -300 -300 -300 -300 -300 -300 -300 -300 -300 -300
432 432 386 403 468 546 489 413 398 404 380 417 358 286 217 174 61 0 -86 -210 -268 -279 -300 -300 -300 -287 -227 -196 -172 -127 -126 -217 -247 -209 -114 -43 -43 -94 -102 -74 -83 -149 -160 -115 -118 -125 -216 -300 -300 -300 -300 -300 -300 -300 -300 -300 -300 -300 -300 -300 -300 -300 -300 -300 -300 -300 -300 -300 -300 -300 -300 -300 -300 -300 -300 -300 -300 -261 -178 -95 21 47 120 243 374 492 605 701 751 731 682 745 836 871 930 903 957 984 967 875 766 677 546 457 370 383 432 413 395 353 261 222 213 203 162 38 -68 -194 -210 -201 -170 -206 -245 -256 -266 -300 -300 -300 -300 -300 -300 -300 -300 -300 -300 -300 -300 -300 -300 -300 -300 -300 -300 -300 -300 -300 -300 -300 -300 -300 -300 -300 -300 -300 -300 -300 -300 -300 -282 -262 -281 -296 -300 -300 -300 -300 -300 -300 -300 -300 -300 -300 -300 -300 -300 -300 -300 -300 -300 -300 -300 -300 -300 -300 -300 -300 -300 -300 -300 -300 -300 -298 -256 -282 -300 -300 -300 -300 -300 -300 -300 -300 -300 -300 -300 -300 -300 -300 -300 -300 -300 -300 -300 -300 -300 -300 -300 -300 -300 -300 -300 -300 -300 -300 -300 -291 -288 -300 -300 -300 -295 -240 -153 -121 -66 -43 -105 -127 -211 -222 -221 -270 -243 -219 -249 -246 -288 -300 -300 -300 -300 -300 -300 -300 -300 -300
380 354 303 337 370 492 495 406 376 347 347 338 293 280 252 193 52 -26 -62 -166 -255 -248 -300 -300 -300 -300 -300 -267 -236 -262 -272 -300 -300 -294 -207 -108 -144 -214 -218 -241 -260 -300 -300 -300 -300 -274 -300 -300 -300 -300 -300 -300 -300 -300 -300 -300 -300 -300 -300 -300 -300 -300 -300 -300 -300 -300 -300 -300 -300 -300 -300 -300 -300 -300 -300 -300 -300 -296 -218 -183 -81 -7 45 133 264 397 514 603 647 629 587 647 753 837 925 951 993 1000 970 872 785 678 529 425 356 353 353 360 326 270 210 171 151 181 130 59 33 -40 -58 -79 -120 -173 -229 -255 -300 -300 -300 -300 -300 -300 -300 -300 -300 -300 -300 -300 -300 -300 -300 -300 -300 -300 -300 -300 -300 -300 -300 -300 -300 -300 -300 -300 -300 -300 -300 -300 -300 -299 -232 -204 -195 -216 -270 -300 -300 -300 -300 -300 -300 -300 -300 -300 -300 -300 -300 -300 -300 -300 -300 -300 -300 -300 -300 -300 -300 -300 -300 -300 -300 -300 -300 -244 -217 -266 -300 -300 -300 -300 -300 -300 -300 -300 -300 -300 -300 -300 -300 -300 -300 -300 -300 -300 -300 -300 -300 -300 -300 -300 -300 -300 -300 -300 -300 -300 -300 -292 -300 -300 -300 -300 -300 -221 -116 -58 -56 -46 -90 -144 -245 -261 -256 -261 -281 -272 -296 -300 -300 -300 -300 -300 -300 -286 -293 -271 -255 -295
310 270 268 279 300 390 360 340 271 317 317 320 249 238 210 153 13 -34 -59 -165 -260 -300 -300 -300 -300 -300 -300 -300 -295 -300 -300 -300 -300 -300 -300 -233 -229 -284 -300 -300 -300 -300 -300 -300 -300 -300 -300 -300 -300 -300 -300 -300 -300 -300 -300 -300 -300 -300 -300 -300 -300 -300 -300 -300 -300 -300 -300 -300 -300 -300 -300 -300 -300 -300 -300 -300 -300 -300 -286 -258 -205 -121 -84 16 155 277 347 434 477 532 539 561 668 799 829 860 917 925 911 794 707 619 518 426 398 324 340 373 308 253 181 145 108 167 136 85 124 81 -3 2 -32 -64 -126 -198 -241 -291 -300 -300 -300 -300 -300 -300 -300 -300 -300 -300 -300 -300 -300 -300 -300 -300 -300 -300 -300 -300 -300 -300 -300 -300 -300 -300 -300 -300 -300 -300 -300 -249 -199 -131 -104 -133 -219 -300 -300 -300 -300 -300 -300 -300 -300 -300 -300 -300 -300 -300 -300 -300 -300 -300 -300 -300 -300 -300 -300 -300 -300 -300 -300 -297 -253 -249 -217 -238 -300 -300 -300 -300 -300 -300 -300 -300 -300 -300 -300 -300 -300 -300 -300 -300 -300 -300 -300 -300 -300 -300 -300 -300 -300 -300 -300 -300 -300 -300 -300 -300 -300 -300 -300 -300 -300 -267 -201 -53 -1 -22 -69 -135 -182 -269 -300 -277 -300 -300 -300 -300 -300 -300 -300 -300 -300 -299 -245 -254 -250 -233
260 190 204 258 247 266 193 158 141 218 245 235 224 196 165 81 -39 -89 -125 -219 -265 -300 -300 -300 -300 -300 -300 -300 -300 -300 -300 -300 -300 -300 -300 -300 -300 -300 -300 -300 -300 -300 -300 -300 -300 -300 -300 -300 -300 -300 -300 -300 -300 -300 -300 -300 -300 -300 -300 -300 -300 -300 -300 -300 -300 -300 -300 -300 -300 -300 -300 -300 -300 -300 -300 -300 -300 -300 -300 -300 -300 -243 -188 -103 -37 89 198 298 366 378 424 478 581 704 754 784 828 808 784 678 590 505 447 408 371 334 344 350 256 224 171 112 91 157 160 130 161 144 42 27 62 15 -78 -130 -145 -155 -242 -300 -300 -300 -300 -300 -300 -300 -300 -300 -300 -300 -300 -300 -300 -300 -300 -300 -300 -300 -300 -300 -300 -300 -300 -300 -300 -300 -300 -300 -300 -232 -137 -33 -25 -60 -147 -228 -300 -300 -300 -300 -300 -300 -300 -300 -300 -300 -300 -300 -300 -300 -300 -300 -300 -300 -300 -300 -300 -300 -300 -300 -280 -284 -244 -265 -262 -236 -300 -300 -300 -300 -300 -300 -300 -300 -300 -300 -300 -300 -300 -300 -300 -300 -300 -300 -300 -300 -300 -300 -300 -300 -300 -300 -300 -300 -300 -300 -300 -300 -300 -300 -300 -300 -300 -298 -224 -101 -36 -60 -67 -87 -134 -252 -300 -300 -300 -300 -300 -300 -300 -300 -300 -300 -300 -300 -282 -247 -230 -225
254 197 202 185 143 118 106 81 120 112 136 127 142 88 59 -14 -81 -119 -177 -235 -300 -300 -300 -300 -300 -300 -300 -300 -300 -300 -300 -300 -300 -300 -300 -300 -300 -300 -300 -300 -300 -300 -300 -300 -300 -300 -300 -300 -300 -300 -300 -300 -300 -300 -300 -300 -300 -300 -300 -300 -300 -300 -300 -300 -300 -300 -300 -300 -300 -300 -300 -300 -300 -300 -300 -300 -300 -300 -300 -300 -300 -300 -300 -228 -143 -48 7 86 202 232 276 363 498 591 615 643 709 683 614 541 455 373 326 303 279 310 317 325 247 151 137 123 129 178 180 204 233 255 173 140 130 93 32 -72 -111 -127 -157 -262 -300 -300 -300 -300 -300 -300 -300 -300 -300 -300 -300 -300 -300 -300 -300 -300 -300 -300 -300 -300 -300 -300 -300 -300 -300 -300 -300 -300 -286 -175 -38 81 69 36 -78 -147 -257 -300 -300 -300 -300 -300 -300 -300 -300 -300 -300 -300 -300 -300 -300 -300 -300 -300 -300 -300 -300 -300 -298 -275 -272 -274 -243 -288 -300 -289 -300 -300 -300 -300 -300 -300 -300 -300 -300 -300 -300 -300 -300 -300 -300 -300 -300 -300 -300 -300 -300 -300 -300 -300 -300 -300 -300 -300 -300 -300 -300 -300 -300 -300 -300 -300 -300 -300 -227 -138 -75 -105 -91 -98 -142 -244 -300 -300 -300 -300 -300 -300 -300 -300 -300 -300 -300 -300 -238 -188 -152 -178
264 196 197 160 111 34 25 68 51 -13 -21 -42 -1 3 -36 -83 -85 -141 -247 -291 -300 -300 -300 -300 -300 -300 -300 -300 -300 -300 -300 -300 -300 -300 -300 -300 -300 -300 -300 -300 -300 -300 -300 -300 -300 -300 -300 -300 -300 -300 -300 -300 -300 -300 -300 -300 -300 -300 -300 -300 -300 -300 -300 -300 -300 -300 -300 -300 -300 -300 -300 -300 -300 -300 -300 -300 -300 -300 -300 -300 -300 -300 -300 -300 -272 -246 -161 -69 60 116 188 286 428 491 530 532 565 555 503 452 357 267 230 236 230 246 233 256 207 140 105 106 127 147 158 170 254 276 265 206 179 194 87 -57 -102 -106 -122 -202 -300 -300 -300 -300 -300 -300 -300 -300 -300 -300 -300 -300 -300 -300 -300 -300 -300 -300 -300 -300 -300 -300 -300 -300 -300 -300 -300 -300 -223 -96 1 75 97 48 -12 -122 -170 -277 -300 -300 -300 -300 -300 -300 -300 -300 -300 -300 -300 -300 -300 -300 -300 -300 -300 -300 -300 -300 -300 -300 -300 -300 -300 -300 -300 -300 -300 -300 -300 -300 -300 -300 -300 -300 -300 -300 -300 -300 -300 -300 -300 -300 -300 -300 -300 -300 -300 -300 -300 -300 -300 -300 -300 -300 -300 -300 -300 -300 -300 -300 -300 -300 -300 -273 -185 -172 -121 -157 -148 -156 -202 -269 -298 -300 -300 -300 -300 -300 -300 -300 -300 -300 -300 -295 -235 -161 -96 -157
295 263 274 234 137 13 -17 -21 -99 -115 -144 -174 -182 -168 -119 -175 -192 -250 -300 -300 -300 -300 -300 -300 -300 -300 -300 -300 -300 -300 -300 -300 -300 -300 -300 -300 -300 -300 -300 -300 -300 -300 -300 -300 -300 -300 -300 -300 -300 -300 -300 -300 -300 -300 -300 -300 -300 -300 -300 -300 -300 -300 -300 -300 -300 -300 -300 -300 -300 -300 -300 -300 -300 -300 -300 -300 -300 -300 -300 -300 -300 -300 -300 -300 -300 -300 -300 -217 -77 20 140 268 389 386 385 407 432 412 369 352 307 227 222 203 177 152 190 200 148 125 103 66 49 89 133 143 221 285 281 217 216 199 57 -18 -74 -87 -123 -167 -244 -300 -300 -300 -300 -300 -300 -300 -300 -300 -300 -300 -300 -300 -300 -300 -300 -300 -300 -300 -300 -300 -300 -300 -300 -300 -300 -268 -106 -4 41 71 110 79 13 -82 -151 -226 -300 -300 -300 -300 -300 -300 -300 -300 -300 -300 -300 -300 -300 -300 -300 -300 -300 -300 -300 -300 -300 -300 -300 -300 -300 -300 -300 -300 -300 -300 -300 -300 -300 -300 -300 -300 -300 -300 -240 -252 -295 -290 -300 -300 -300 -300 -300 -300 -300 -300 -300 -300 -300 -300 -300 -300 -300 -300 -300 -300 -300 -300 -300 -300 -263 -256 -185 -148 -164 -198 -213 -252 -285 -288 -290 -300 -300 -300 -300 -300 -300 -300 -300 -300 -300 -241 -221 -187 -125 -148
282 290 262 243 147 -13 -113 -145 -205 -253 -300 -300 -300 -300 -290 -267 -290 -300 -300 -300 -300 -300 -300 -300 -300 -300 -300 -300 -300 -300 -300 -300 -300 -300 -300 -300 -300 -300 -300 -300 -300 -300 -300 -300 -300 -300 -300 -300 -300 -300 -300 -300 -300 -300 -300 -300 -300 -300 -300 -300 -300 -300 -300 -300 -300 -300 -300 -300 -300 -300 -300 -300 -300 -300 -300 -300 -300 -300 -300 -300 -300 -300 -300 -300 -300 -300 -300 -300 -219 -94 19 181 269 269 270 244 268 262 275 269 215 152 176 148 115 54 46 68 61 64 84 68 36 91 115 164 206 227 256 229 195 147 56 -42 -133 -132 -123 -103 -145 -235 -300 -300 -300 -300 -300 -300 -300 -300 -300 -300 -300 -300 -300 -300 -300 -300 -300 -300 -300 -300 -300 -300 -300 -300 -300 -203 -71 15 70 91 121 41 -52 -89 -142 -204 -300 -300 -300 -300 -300 -300 -300 -300 -300 -300 -300 -300 -300 -300 -300 -300 -300 -300 -300 -300 -300 -300 -300 -300 -300 -300 -300 -300 -300 -300 -300 -300 -300 -285 -277 -288 -242 -228 -198 -215 -233 -265 -297 -300 -300 -300 -300 -300 -300 -300 -300 -300 -300 -300 -300 -300 -300 -300 -300 -300 -300 -300 -286 -279 -281 -290 -278 -205 -204 -210 -253 -278 -300 -300 -266 -300 -300 -300 -300 -300 -300 -300 -300 -300 -265 -222 -258 -215 -163 -117
291 264 196 168 78 -64 -191 -246 -300 -300 -300 -300 -300 -300 -300 -300 -300 -300 -300 -300 -300 -300 -300 -300 -300 -300 -300 -300 -300 -300 -300 -300 -300 -300 -300 -300 -300 -300 -300 -300 -300 -300 -300 -300 -300 -300 -300 -300 -300 -300 -300 -300 -300 -300 -300 -300 -300 -300 -300 -300 -300 -300 -300 -300 -300 -300 -300 -300 -300 -300 -300 -300 -300 -300 -300 -300 -300 -300 -300 -300 -300 -300 -300 -300 -300 -300 -300 -300 -300 -199 -92 54 124 124 122 94 103 134 172 175 93 60 76 22 -20 -49 -56 -36 -11 -31 4 57 69 79 122 186 166 189 216 241 190 147 75 -50 -124 -149 -158 -117 -146 -230 -300 -300 -300 -300 -300 -300 -300 -300 -300 -300 -300 -300 -300 -300 -300 -300 -300 -300 -300 -300 -300 -300 -300 -300 -300 -227 -133 -17 78 99 106 39 -10 -84 -142 -262 -300 -300 -300 -300 -300 -300 -300 -300 -300 -300 -300 -300 -300 -300 -300 -300 -300 -300 -300 -300 -300 -300 -300 -300 -300 -300 -300 -300 -300 -300 -300 -300 -263 -227 -210 -199 -146 -143 -138 -184 -183 -244 -253 -285 -300 -300 -300 -300 -300 -300 -300 -300 -300 -300 -300 -300 -300 -300 -300 -300 -300 -300 -273 -262 -300 -300 -300 -286 -300 -300 -299 -276 -291 -282 -250 -300 -300 -300 -300 -300 -300 -300 -300 -300 -297 -270 -250 -198 -122 -76
261 263 176 117 27 -90 -237 -300 -300 -300 -300 -300 -300 -300 -300 -300 -300 -300 -300 -300 -300 -300 -300 -300 -300 -300 -300 -300 -300 -300 -300 -300 -300 -300 -300 -300 -300 -300 -300 -300 -300 -300 -300 -300 -300 -300 -300 -300 -300 -300 -300 -300 -300 -300 -300 -300 -300 -300 -300 -300 -300 -300 -300 -300 -300 -300 -300 -300 -300 -300 -300 -300 -300 -300 -300 -300 -300 -300 -300 -300 -300 -300 -300 -300 -300 -300 -300 -300 -300 -300 -185 -38 -1 -1 10 -23 -9 20 40 31 -9 -47 -40 -104 -136 -124 -66 -76 -96 -107 -50 23 90 93 111 182 162 197 201 202 171 132 56 5 -53 -90 -117 -106 -164 -195 -225 -300 -300 -300 -300 -300 -300 -300 -300 -300 -300 -300 -300 -300 -300 -300 -300 -300 -300 -300 -300 -300 -300 -300 -299 -216 -126 -30 37 55 47 16 -6 -82 -155 -300 -300 -300 -300 -300 -300 -300 -300 -300 -300 -300 -300 -300 -300 -300 -300 -300 -300 -300 -300 -300 -300 -300 -300 -300 -300 -300 -300 -300 -300 -300 -300 -300 -293 -255 -222 -204 -131 -118 -78 -79 -53 -126 -157 -208 -279 -275 -294 -300 -300 -300 -300 -300 -300 -300 -300 -300 -300 -300 -300 -300 -300 -300 -300 -300 -300 -300 -300 -300 -300 -300 -300 -300 -300 -300 -249 -282 -300 -300 -300 -300 -300 -300 -300 -300 -300 -290 -214 -134 -92 -85
287 266 137 68 -14 -144 -281 -300 -300 -300 -300 -300 -300 -300 -300 -300 -300 -300 -300 -300 -300 -300 -300 -300 -300 -300 -300 -300 -300 -300 -300 -300 -300 -300 -300 -300 -300 -300 -300 -300 -300 -300 -300 -300 -300 -300 -300 -300 -300 -300 -300 -300 -300 -300 -300 -300 -300 -300 -300 -300 -300 -300 -300 -300 -300 -300 -300 -300 -300 -300 -300 -300 -300 -300 -300 -300 -300 -300 -300 -300 -300 -300 -300 -300 -300 -300 -300 -300 -300 -300 -272 -152 -121 -134 -140 -148 -137 -84 -26 -92 -127 -165 -177 -232 -217 -180 -115 -136 -117 -105 -21 9 60 64 121 154 129 132 166 182 187 118 58 -5 -62 -95 -126 -103 -121 -129 -190 -260 -300 -300 -300 -300 -300 -300 -300 -300 -300 -300 -300 -300 -300 -300 -300 -300 -300 -300 -300 -300 -300 -300 -279 -232 -136 -60 -29 6 -16 4 -23 -81 -170 -294 -300 -300 -300 -300 -300 -300 -300 -300 -300 -300 -300 -300 -300 -300 -300 -300 -300 -300 -300 -300 -300 -300 -300 -300 -300 -300 -300 -300 -300 -300 -300 -300 -271 -265 -253 -208 -114 -48 -37 -12 -6 -29 -90 -148 -221 -256 -284 -300 -300 -300 -300 -300 -300 -300 -283 -300 -300 -300 -300 -300 -300 -300 -300 -300 -300 -300 -300 -300 -300 -300 -300 -300 -297 -269 -270 -269 -300 -300 -300 -300 -300 -300 -300 -300 -300 -300 -244 -151 -74 -64
282 267 161 107 0 -144 -300 -300 -300 -300 -300 -300 -300 -300 -300 -300 -300 -300 -300 -300 -300 -300 -300 -300 -300 -300 -300 -300 -300 -300 -300 -300 -300 -300 -300 -300 -300 -300 -300 -300 -300 -300 -300 -300 -300 -300 -300 -300 -300 -300 -300 -300 -300 -300 -300 -300 -300 -300 -300 -300 -300 -300 -300 -300 -300 -300 -300 -300 -300 -300 -300 -300 -300 -300 -300 -300 -300 -300 -300 -300 -300 -300 -300 -300 -300 -300 -300 -300 -300 -300 -300 -286 -220 -249 -253 -219 -240 -175 -139 -142 -189 -229 -264 -277 -252 -180 -178 -178 -150 -60 16 41 74 127 174 165 140 69 88 131 180 122 50 -16 -44 -50 -115 -100 -79 -108 -136 -208 -258 -300 -300 -300 -300 -300 -300 -300 -300 -300 -300 -300 -300 -300 -300 -300 -300 -300 -300 -300 -300 -300 -300 -209 -172 -94 -52 10 58 58 0 -24 -130 -188 -243 -273 -300 -300 -290 -272 -300 -300 -300 -300 -300 -300 -300 -300 -300 -300 -300 -300 -300 -300 -300 -300 -300 -300 -300 -300 -300 -300 -300 -300 -300 -278 -225 -227 -238 -181 -126 -55 0 -15 11 11 -40 -115 -150 -213 -252 -291 -250 -289 -287 -300 -288 -222 -217 -272 -300 -300 -300 -300 -300 -276 -300 -300 -300 -300 -300 -300 -300 -300 -300 -300 -300 -264 -286 -300 -300 -300 -300 -300 -300 -300 -300 -300 -300 -300 -282 -196 -81 -85
236 211 121 70 -17 -128 -290 -300 -300 -300 -300 -300 -300 -300 -300 -300 -300 -300 -300 -300 -300 -300 -300 -300 -300 -300 -300 -300 -300 -300 -300 -300 -300 -300 -300 -300 -300 -300 -300 -300 -300 -300 -300 -300 -300 -300 -300 -300 -300 -300 -300 -300 -300 -300 -300 -300 -300 -300 -300 -300 -300 -300 -300 -300 -300 -300 -300 -300 -300 -300 -300 -300 -300 -300 -300 -300 -300 -300 -300 -300 -300 -300 -300 -300 -300 -300 -300 -300 -300 -300 -300 -300 -300 -300 -300 -300 -300 -300 -264 -232 -288 -287 -293 -270 -262 -194 -155 -127 -105 -57 13 72 124 186 199 148 127 82 103 145 138 116 71 69 38 -29 -56 -83 -88 -120 -116 -165 -196 -253 -239 -259 -300 -300 -300 -300 -300 -300 -300 -300 -300 -300 -300 -300 -300 -300 -300 -300 -300 -300 -300 -247 -177 -129 -83 1 104 141 88 94 33 -35 -115 -155 -169 -180 -203 -216 -300 -300 -300 -300 -300 -300 -300 -300 -300 -300 -300 -300 -300 -300 -300 -300 -300 -300 -300 -300 -300 -300 -300 -300 -300 -198 -113 -100 -120 -126 -143 -87 -1 6 64 83 61 -5 -31 -125 -132 -154 -154 -222 -219 -266 -259 -240 -245 -293 -300 -272 -268 -295 -296 -232 -250 -294 -300 -300 -300 -300 -300 -300 -300 -300 -300 -300 -300 -300 -300 -300 -300 -300 -300 -300 -286 -276 -254 -300 -254 -175 -68 -104
249 219 131 52 -35 -160 -274 -300 -300 -300 -300 -300 -300 -300 -300 -300 -300 -300 -300 -300 -300 -300 -300 -300 -300 -300 -300 -300 -300 -300 -300 -300 -300 -300 -300 -300 -300 -300 -300 -300 -300 -300 -300 -300 -300 -300 -300 -300 -300 -300 -300 -300 -300 -300 -300 -300 -300 -300 -300 -300 -300 -300 -300 -300 -300 -300 -300 -300 -300 -300 -300 -300 -300 -300 -300 -300 -300 -300 -300 -300 -300 -300 -300 -300 -300 -300 -300 -300 -300 -300 -300 -300 -300 -300 -300 -300 -300 -300 -300 -300 -300 -300 -291 -281 -262 -213 -182 -114 -109 -47 20 97 165 199 201 158 118 66 104 127 135 97 97 110 58 30 -11 -134 -162 -142 -183 -200 -207 -228 -212 -258 -300 -300 -300 -300 -300 -300 -300 -300 -300 -300 -300 -300 -300 -300 -300 -300 -300 -300 -278 -218 -160 -124 -39 61 159 237 234 197 119 59 -16 -31 -67 -116 -156 -207 -285 -300 -300 -300 -300 -300 -300 -300 -300 -300 -300 -300 -300 -300 -300 -300 -300 -300 -300 -300 -300 -300 -300 -300 -209 -120 -79 -51 -48 -64 -97 -103 -32 35 109 144 129 76 51 -25 -106 -92 -125 -168 -190 -235 -226 -236 -235 -293 -292 -250 -226 -254 -233 -179 -139 -179 -280 -300 -300 -300 -300 -300 -300 -300 -300 -300 -300 -300 -300 -300 -300 -300 -300 -300 -254 -198 -181 -195 -174 -129 -68 -93
216 231 151 22 -97 -244 -286 -300 -300 -300 -300 -300 -300 -300 -300 -300 -300 -300 -300 -300 -300 -300 -300 -300 -300 -300 -300 -300 -300 -300 -300 -300 -300 -300 -300 -300 -300 -300 -300 -300 -300 -300 -300 -300 -300 -300 -300 -300 -300 -300 -300 -300 -300 -300 -300 -300 -300 -300 -300 -300 -300 -300 -300 -300 -300 -300 -300 -300 -300 -300 -300 -300 -300 -300 -300 -300 -300 -300 -300 -300 -300 -300 -300 -300 -300 -300 -300 -300 -300 -300 -300 -300 -300 -300 -300 -300 -300 -300 -300 -300 -300 -300 -300 -300 -300 -251 -172 -112 -116 -47 13 94 114 118 169 114 91 74 95 129 116 72 80 55 14 15 -32 -131 -151 -151 -212 -274 -258 -274 -280 -272 -300 -300 -300 -300 -300 -300 -300 -300 -300 -300 -300 -300 -300 -300 -300 -300 -300 -300 -237 -149 -109 -82 3 117 173 218 286 248 192 128 60 60 -9 -83 -141 -137 -167 -248 -293 -300 -300 -300 -300 -300 -300 -300 -300 -300 -300 -300 -300 -300 -300 -300 -300 -300 -300 -300 -300 -300 -158 -80 -93 -47 -10 0 -25 -59 -34 39 114 146 112 75 54 26 -67 -129 -177 -151 -163 -171 -165 -212 -227 -256 -241 -254 -221 -196 -180 -162 -86 -94 -173 -220 -300 -300 -300 -300 -300 -300 -300 -300 -300 -300 -300 -300 -300 -300 -300 -220 -188 -151 -169 -136 -109 -61 -59 -36
190 186 129 44 -78 -253 -300 -300 -300 -300 -300 -300 -300 -300 -300 -300 -300 -300 -300 -300 -300 -300 -300 -300 -300 -300 -300 -300 -300 -300 -300 -300 -300 -300 -300 -300 -300 -300 -300 -300 -300 -300 -300 -300 -300 -300 -300 -300 -300 -300 -300 -300 -300 -300 -300 -300 -300 -300 -300 -300 -300 -300 -300 -300 -300 -300 -300 -300 -300 -300 -300 -300 -300 -300 -300 -300 -300 -300 -300 -300 -300 -300 -300 -300 -300 -300 -300 -300 -300 -300 -300 -300 -300 -300 -300 -300 -300 -300 -300 -300 -300 -300 -300 -300 -300 -243 -166 -95 -71 -40 -8 54 58 33 83 102 124 75 85 130 109 52 31 -7 -51 -70 -75 -101 -151 -174 -246 -275 -292 -300 -300 -300 -300 -300 -300 -300 -300 -300 -300 -300 -300 -300 -300 -300 -300 -300 -300 -300 -300 -228 -158 -102 -99 -68 11 87 154 244 310 265 217 223 183 174 88 21 -73 -84 -147 -171 -207 -300 -300 -300 -300 -300 -300 -300 -300 -300 -300 -300 -300 -300 -300 -300 -300 -300 -300 -300 -300 -260 -143 -81 -82 -17 10 44 48 34 7 46 70 98 72 63 19 3 -41 -117 -109 -66 -90 -101 -102 -177 -228 -288 -284 -217 -162 -141 -120 -116 -29 -15 -61 -159 -222 -300 -300 -300 -300 -300 -300 -300 -300 -300 -300 -300 -300 -300 -281 -246 -216 -175 -145 -111 -82 -45 -75 -40
123 110 111 46 -123 -267 -300 -300 -300 -300 -300 -300 -300 -300 -300 -300 -300 -300 -300 -300 -300 -300 -300 -300 -300 -300 -300 -300 -300 -300 -300 -300 -300 -300 -300 -300 -300 -300 -300 -300 -300 -300 -300 -300 -300 -300 -300 -300 -300 -300 -300 -300 -300 -300 -300 -300 -300 -300 -300 -300 -300 -300 -300 -300 -300 -300 -300 -300 -300 -300 -300 -300 -300 -300 -300 -300 -300 -300 -300 -300 -300 -300 -300 -300 -300 -300 -300 -300 -300 -300 -300 -300 -300 -300 -300 -300 -300 -300 -300 -300 -300 -300 -300 -280 -268 -234 -146 -105 -64 -68 -8 -15 -27 -50 0 55 75 52 99 104 90 80 35 -25 -114 -142 -119 -108 -127 -184 -265 -300 -300 -300 -300 -300 -300 -300 -300 -300 -300 -300 -300 -300 -300 -300 -300 -300 -300 -300 -300 -300 -261 -193 -126 -72 -69 -29 4 76 141 232 282 304 291 320 337 270 156 89 -3 -71 -111 -135 -149 -218 -297 -300 -300 -300 -300 -300 -300 -300 -300 -300 -300 -300 -300 -300 -300 -300 -300 -300 -300 -281 -206 -116 -77 -1 15 53 78 97 61 40 39 49 49 51 31 -1 -66 -51 -61 -46 -22 -70 -136 -153 -201 -256 -291 -227 -123 -89 -70 -3 31 61 -3 -56 -157 -252 -300 -300 -300 -300 -300 -300 -300 -300 -300 -300 -300 -300 -300 -243 -202 -160 -166 -142 -93 -28 -17 -30
66 62 67 10 -151 -279 -300 -300 -300 -300 -300 -300 -300 -300 -300 -300 -300 -300 -300 -300 -300 -300 -300 -300 -300 -300 -300 -300 -300 -300 -300 -300 -300 -300 -300 -300 -300 -300 -300 -300 -300 -300 -300 -300 -300 -300 -300 -300 -300 -300 -300 -300 -300 -300 -300 -300 -300 -300 -300 -300 -300 -300 -300 -300 -300 -300 -300 -300 -300 -300 -300 -300 -300 -300 -300 -300 -300 -300 -300 -300 -300 -300 -300 -300 -300 -300 -300 -300 -300 -300 -300 -300 -300 -300 -300 -300 -300 -300 -300 -300 -300 -261 -207 -209 -210 -207 -145 -117 -73 -34 -27 -73 -41 -66 -33 -24 1 73 78 27 21 21 -25 -86 -151 -149 -120 -117 -185 -269 -300 -300 -300 -300 -300 -300 -300 -300 -300 -300 -300 -300 -300 -300 -300 -300 -300 -300 -300 -300 -300 -269 -171 -156 -117 -46 9 55 87 138 238 331 305 321 306 349 383 359 239 158 84 28 -7 -63 -99 -143 -222 -293 -300 -300 -300 -300 -300 -300 -300 -300 -300 -300 -300 -300 -300 -300 -300 -300 -300 -300 -300 -225 -112 -16 38 49 91 101 101 107 26 -8 -19 8 -16 -57 -101 -51 -59 -54 -31 -66 -182 -194 -215 -264 -300 -263 -160 -58 -11 56 61 69 50 11 -83 -132 -247 -300 -300 -300 -300 -300 -300 -300 -300 -300 -300 -300 -300 -288 -208 -158 -157 -166 -115 -39 -18 -13
30 1 -18 -100 -255 -300 -300 -300 -300 -300 -300 -300 -300 -300 -300 -300 -300 -300 -300 -300 -300 -300 -300 -300 -300 -300 -300 -300 -300 -300 -300 -300 -300 -300 -300 -300 -300 -300 -300 -300 -300 -300 -263 -300 -278 -300 -300 -300 -300 -300 -300 -300 -300 -300 -300 -300 -300 -300 -300 -300 -300 -300 -300 -300 -300 -300 -300 -300 -300 -300 -300 -300 -300 -300 -300 -300 -300 -300 -300 -300 -300 -300 -300 -300 -300 -300 -300 -300 -300 -300 -300 -300 -300 -300 -300 -300 -300 -300 -300 -300 -300 -216 -170 -188 -172 -151 -86 -19 20 6 -6 -22 8 -33 -21 -12 8 22 42 4 -8 -50 -84 -141 -176 -165 -148 -178 -252 -300 -300 -300 -300 -300 -300 -300 -300 -300 -300 -300 -300 -300 -300 -300 -300 -300 -300 -300 -300 -294 -242 -198 -140 -148 -95 -18 57 80 118 209 325 383 390 419 399 416 448 446 360 277 181 118 74 42 -15 -35 -94 -139 -205 -247 -300 -300 -300 -300 -300 -300 -300 -300 -300 -300 -300 -300 -300 -300 -300 -300 -300 -263 -137 -82 -16 14 71 77 88 120 89 34 -22 -24 -63 -82 -70 -17 -5 -14 -29 -88 -206 -198 -217 -266 -299 -269 -222 -113 -21 60 80 47 61 31 -43 -55 -111 -214 -295 -300 -279 -300 -300 -300 -300 -300 -300 -300 -300 -300 -216 -187 -166 -200 -165 -144 -117 -54
-54 -106 -133 -215 -300 -300 -300 -300 -300 -300 -300 -300 -300 -300 -300 -300 -300 -300 -300 -300 -300 -300 -300 -300 -300 -300 -300 -300 -300 -300 -300 -300 -300 -300 -300 -300 -300 -300 -300 -300 -300 -275 -235 -280 -271 -269 -277 -300 -300 -300 -300 -300 -300 -300 -300 -300 -300 -300 -300 -300 -300 -300 -300 -300 -286 -242 -268 -300 -300 -300 -300 -300 -300 -300 -300 -300 -300 -300 -300 -300 -300 -300 -300 -300 -300 -300 -300 -300 -300 -300 -300 -300 -300 -300 -300 -300 -300 -300 -300 -300 -300 -192 -129 -180 -149 -71 -22 37 63 64 26 21 53 59 12 -20 -34 0 16 -43 -86 -98 -128 -166 -206 -202 -249 -273 -300 -300 -300 -300 -300 -300 -300 -300 -300 -300 -300 -300 -300 -300 -300 -300 -300 -300 -300 -300 -299 -290 -215 -178 -139 -118 -99 -17 48 63 182 295 404 467 489 487 493 462 480 515 499 400 287 254 190 105 106 70 38 -38 -131 -177 -300 -300 -300 -300 -300 -300 -300 -300 -300 -300 -300 -300 -300 -300 -300 -300 -300 -300 -245 -136 -90 -21 -7 37 52 88 85 43 -44 -89 -117 -92 -49 49 48 7 -11 -81 -135 -204 -245 -290 -300 -300 -270 -195 -121 -46 32 28 38 32 -14 1 -18 -117 -220 -238 -234 -300 -300 -300 -300 -300 -300 -300 -300 -300 -242 -192 -164 -218 -209 -223 -195 -143
-166 -252 -270 -252 -276 -300 -300 -300 -300 -300 -300 -300 -300 -300 -300 -300 -300 -300 -300 -300 -300 -300 -300 -300 -300 -300 -300 -300 -300 -300 -300 -300 -300 -300 -300 -300 -300 -300 -300 -300 -300 -300 -261 -248 -212 -259 -238 -253 -242 -296 -300 -300 -300 -300 -300 -300 -300 -300 -300 -300 -300 -299 -277 -269 -205 -163 -211 -294 -300 -300 -300 -300 -300 -300 -300 -300 -300 -300 -300 -300 -300 -300 -300 -300 -300 -300 -300 -300 -300 -300 -300 -300 -300 -300 -300 -300 -300 -300 -300 -300 -290 -183 -120 -110 -101 -59 16 58 71 72 55 79 39 34 -47 -90 -92 -51 -32 -95 -144 -123 -166 -172 -203 -255 -300 -300 -300 -300 -300 -300 -300 -300 -300 -300 -300 -300 -300 -300 -300 -300 -300 -300 -300 -300 -300 -300 -225 -264 -280 -274 -252 -189 -92 8 20 52 205 306 384 449 563 556 530 574 591 582 554 459 443 369 224 132 147 139 102 28 -25 -101 -259 -300 -300 -300 -300 -300 -300 -300 -300 -300 -300 -300 -300 -300 -300 -300 -300 -300 -300 -229 -152 -58 -35 -39 -25 -34 -24 2 -43 -132 -180 -152 -24 90 73 1 -28 -61 -111 -224 -250 -293 -300 -300 -300 -281 -184 -113 -62 -51 -69 -33 -25 4 -23 -85 -142 -209 -242 -299 -300 -300 -300 -300 -300 -300 -300 -300 -245 -217 -206 -234 -234 -253 -253 -245
-265 -300 -300 -300 -272 -300 -300 -300 -300 -300 -300 -300 -300 -300 -300 -300 -300 -300 -300 -300 -300 -300 -300 -300 -300 -300 -300 -300 -300 -300 -300 -300 -300 -300 -300 -300 -300 -300 -300 -300 -300 -300 -247 -197 -164 -164 -123 -118 -126 -171 -265 -300 -300 -300 -300 -300 -300 -300 -300 -300 -265 -217 -193 -157 -114 -132 -208 -300 -300 -300 -300 -300 -300 -300 -300 -300 -300 -300 -300 -300 -300 -300 -300 -300 -300 -300 -300 -300 -300 -300 -300 -300 -300 -300 -300 -300 -300 -300 -300 -300 -265 -129 -81 -56 -19 16 43 78 112 135 96 54 -9 0 -51 -97 -55 -37 -69 -126 -169 -135 -183 -213 -209 -265 -300 -300 -300 -300 -300 -300 -300 -300 -300 -300 -300 -300 -300 -300 -300 -300 -300 -300 -300 -300 -300 -300 -257 -255 -265 -264 -295 -227 -129 -52 -3 47 163 279 351 475 582 566 618 697 673 671 651 575 532 413 299 172 177 179 184 155 80 -38 -184 -300 -300 -300 -300 -300 -300 -300 -300 -300 -300 -300 -300 -300 -300 -300 -300 -300 -300 -300 -265 -185 -71 -41 -18 -93 -82 -16 -57 -126 -161 -178 -98 -1 25 12 0 -31 -91 -228 -293 -300 -300 -300 -300 -265 -213 -150 -83 -40 -89 -53 -21 -26 -51 -130 -184 -224 -300 -300 -300 -300 -300 -300 -300 -300 -300 -300 -273 -274 -265 -271 -289 -300 -300 -300
-300 -300 -300 -300 -300 -300 -300 -300 -300 -300 -300 -300 -300 -300 -300 -300 -300 -300 -300 -300 -300 -300 -300 -300 -300 -300 -300 -300 -300 -300 -300 -300 -300 -300 -300 -300 -300 -300 -300 -300 -300 -300 -265 -156 -93 -77 1 41 21 -95 -160 -185 -170 -143 -158 -189 -239 -273 -300 -298 -242 -110 -58 -47 -45 -100 -172 -295 -300 -300 -300 -300 -300 -300 -300 -300 -300 -300 -300 -300 -300 -300 -300 -300 -300 -300 -300 -300 -300 -300 -300 -300 -300 -300 -300 -300 -300 -300 -300 -300 -249 -148 -51 9 14 43 91 103 142 151 111 65 -39 -46 -71 -78 -21 -32 -83 -161 -186 -175 -234 -257 -238 -287 -300 -300 -300 -300 -300 -300 -300 -300 -300 -300 -300 -300 -300 -300 -300 -300 -300 -300 -299 -300 -300 -300 -287 -251 -279 -283 -300 -276 -191 -72 3 70 120 258 357 526 590 639 702 734 749 762 747 695 610 508 369 271 247 230 272 262 204 50 -100 -243 -300 -300 -300 -300 -300 -300 -300 -300 -300 -300 -300 -300 -300 -300 -300 -300 -300 -300 -300 -241 -123 -69 -81 -114 -115 -69 -84 -131 -171 -181 -144 -51 -7 4 32 19 -58 -198 -281 -294 -300 -300 -300 -295 -224 -177 -91 -73 -79 -110 -57 -73 -117 -148 -228 -272 -300 -300 -300 -300 -300 -300 -300 -300 -300 -300 -296 -293 -300 -300 -300 -300 -300 -300
-300 -300 -300 -300 -300 -300 -300 -300 -300 -300 -300 -300 -300 -300 -300 -300 -300 -300 -300 -300 -300 -300 -300 -300 -300 -300 -300 -300 -300 -300 -300 -300 -300 -300 -300 -300 -300 -300 -300 -300 -300 -300 -251 -133 -56 12 93 129 126 0 -47 -32 -34 -31 -85 -125 -138 -141 -169 -178 -154 -48 -4 -15 -34 -61 -109 -226 -300 -300 -300 -300 -300 -300 -300 -300 -300 -300 -300 -300 -300 -300 -300 -300 -300 -300 -300 -300 -300 -300 -300 -300 -300 -300 -300 -300 -300 -300 -300 -300 -266 -146 -31 -41 -8 32 66 59 71 90 70 36 -45 -79 -131 -124 -44 -52 -101 -146 -202 -258 -300 -300 -300 -300 -300 -300 -300 -300 -300 -300 -300 -300 -300 -300 -300 -300 -300 -300 -300 -300 -300 -300 -300 -300 -300 -300 -300 -286 -276 -300 -294 -222 -129 -15 4 114 170 273 389 549 659 713 675 726 792 801 787 754 669 572 445 383 352 331 314 303 269 126 0 -137 -227 -300 -300 -300 -300 -300 -300 -300 -296 -282 -300 -300 -300 -300 -300 -300 -300 -300 -300 -300 -253 -202 -151 -109 -169 -180 -206 -204 -185 -119 -110 -68 -63 -24 6 -18 -61 -167 -246 -276 -300 -300 -300 -300 -239 -213 -159 -143 -144 -130 -125 -170 -183 -173 -209 -291 -300 -300 -300 -300 -300 -300 -300 -300 -300 -300 -300 -291 -300 -300 -300 -300 -300 -300
-300 -300 -300 -300 -300 -300 -300 -300 -300 -300 -300 -300 -300 -300 -300 -300 -300 -300 -300 -300 -300 -300 -300 -300 -300 -300 -300 -300 -300 -300 -300 -300 -300 -300 -300 -300 -300 -300 -300 -249 -231 -214 -187 -95 22 94 164 204 186 142 114 103 31 -3 -15 -41 -31 -41 -50 -43 46 95 98 108 54 52 -28 -112 -271 -300 -300 -300 -300 -300 -300 -300 -300 -300 -300 -300 -300 -300 -300 -300 -300 -300 -300 -300 -300 -300 -300 -300 -300 -300 -300 -300 -300 -300 -300 -300 -300 -177 -86 -50 -15 2 57 39 21 2 34 20 -41 -135 -186 -171 -104 -105 -176 -197 -230 -300 -300 -300 -300 -300 -300 -300 -300 -300 -300 -300 -300 -300 -300 -300 -300 -300 -300 -300 -300 -300 -300 -300 -300 -300 -300 -300 -283 -274 -278 -284 -261 -180 -65 -18 36 141 232 349 492 609 667 663 645 665 736 749 724 737 686 589 520 489 402 341 292 334 300 241 107 16 -119 -243 -300 -300 -300 -300 -295 -267 -279 -290 -300 -300 -300 -300 -300 -300 -300 -300 -300 -300 -300 -214 -146 -94 -152 -228 -244 -210 -159 -79 -95 -81 -99 -68 -85 -71 -126 -190 -263 -264 -300 -300 -300 -300 -277 -236 -181 -121 -139 -154 -147 -137 -130 -128 -146 -207 -273 -300 -300 -300 -300 -300 -300 -300 -300 -300 -271 -267 -271 -300 -283 -288 -296 -300
-300 -300 -300 -300 -300 -300 -300 -300 -300 -300 -300 -300 -300 -300 -300 -300 -300 -300 -300 -300 -300 -300 -300 -300 -300 -300 -300 -300 -300 -300 -300 -300 -300 -300 -300 -300 -300 -210 -147 -86 -74 -88 -51 -8 82 175 268 312 267 212 214 188 106 19 14 46 52 44 79 109 163 176 188 199 142 89 18 -71 -217 -300 -300 -300 -300 -300 -300 -300 -300 -300 -300 -300 -300 -300 -300 -300 -300 -300 -300 -300 -300 -300 -300 -300 -300 -300 -300 -300 -300 -300 -300 -300 -297 -209 -133 -51 -35 -22 14 -3 -54 -59 -27 -26 -78 -185 -255 -217 -176 -159 -240 -283 -300 -300 -300 -300 -300 -300 -300 -300 -300 -300 -300 -300 -300 -300 -300 -300 -300 -300 -300 -300 -300 -300 -300 -300 -300 -300 -300 -295 -300 -265 -239 -204 -183 -157 -66 -15 47 155 331 441 552 615 594 590 584 580 648 689 662 682 676 618 553 512 411 341 302 354 330 320 235 159 30 -80 -181 -243 -300 -300 -258 -206 -255 -291 -300 -300 -300 -300 -300 -300 -300 -300 -300 -300 -288 -156 -101 -92 -166 -226 -257 -159 -89 -49 -48 -92 -101 -106 -149 -178 -213 -270 -300 -294 -300 -300 -300 -289 -273 -246 -164 -126 -109 -135 -126 -135 -116 -85 -104 -128 -186 -300 -300 -300 -300 -300 -300 -300 -300 -300 -277 -243 -244 -272 -217 -214 -228 -296
-300 -300 -300 -300 -300 -300 -300 -300 -300 -300 -300 -300 -300 -300 -300 -300 -300 -300 -300 -300 -300 -300 -300 -300 -300 -300 -300 -300 -300 -300 -300 -300 -300 -300 -293 -269 -197 -126 -42 -4 51 65 74 119 223 318 385 382 373 276 243 193 153 125 131 213 235 229 267 229 235 225 223 250 205 112 18 -115 -216 -300 -300 -300 -300 -300 -300 -300 -300 -300 -300 -300 -300 -300 -300 -300 -300 -300 -300 -300 -300 -300 -300 -300 -300 -300 -300 -300 -300 -300 -300 -300 -294 -195 -134 -97 -47 -9 -8 -66 -115 -92 -74 -77 -118 -208 -233 -222 -229 -273 -300 -300 -300 -300 -300 -300 -300 -300 -300 -300 -300 -300 -300 -300 -300 -300 -300 -300 -300 -300 -300 -300 -300 -300 -300 -300 -300 -300 -300 -300 -277 -210 -142 -83 -57 -61 -14 56 118 166 328 475 521 498 512 533 508 486 534 541 581 653 668 635 575 470 381 350 321 353 345 326 227 188 93 19 -80 -187 -238 -215 -195 -174 -216 -269 -300 -300 -300 -300 -300 -300 -300 -300 -300 -300 -265 -142 -98 -122 -183 -181 -163 -148 -85 -17 14 -70 -105 -129 -196 -230 -253 -290 -300 -300 -300 -300 -300 -300 -300 -286 -226 -170 -108 -124 -112 -140 -126 -74 -115 -150 -179 -253 -300 -300 -282 -283 -300 -300 -300 -300 -295 -236 -228 -200 -128 -155 -196 -300
-300 -300 -300 -300 -300 -300 -300 -300 -300 -300 -300 -300 -300 -300 -300 -300 -300 -300 -300 -300 -300 -300 -300 -300 -300 -300 -300 -300 -300 -300 -300 -300 -300 -279 -235 -211 -127 -64 55 73 112 176 188 251 309 414 423 463 445 379 320 276 278 267 306 371 391 366 398 316 268 208 226 215 224 112 -4 -161 -295 -300 -300 -300 -300 -300 -300 -300 -300 -300 -300 -300 -300 -300 -300 -300 -300 -300 -300 -300 -300 -300 -300 -300 -300 -300 -300 -300 -300 -300 -300 -300 -300 -239 -175 -107 -72 -43 -53 -159 -178 -179 -150 -170 -209 -260 -300 -300 -295 -300 -300 -300 -300 -300 -300 -300 -300 -300 -300 -300 -300 -300 -300 -300 -300 -300 -300 -300 -300 -300 -300 -300 -300 -300 -300 -300 -300 -300 -294 -273 -239 -193 -110 -8 11 16 46 105 190 218 345 441 459 464 487 519 495 493 487 485 532 592 659 637 564 489 425 430 411 410 407 346 284 218 198 85 -35 -171 -193 -183 -124 -104 -158 -185 -287 -300 -300 -300 -300 -300 -300 -300 -264 -266 -197 -142 -60 -117 -164 -136 -131 -120 -51 -12 15 -24 -67 -94 -157 -205 -235 -258 -300 -300 -300 -300 -300 -300 -300 -267 -210 -167 -113 -110 -96 -157 -128 -59 -106 -148 -174 -224 -280 -249 -218 -256 -300 -300 -300 -298 -290 -261 -231 -195 -161 -186 -220 -300
-300 -300 -300 -300 -300 -300 -300 -300 -300 -300 -300 -300 -300 -300 -300 -300 -300 -300 -300 -300 -300 -300 -300 -300 -300 -300 -300 -300 -300 -300 -300 -300 -300 -227 -199 -174 -127 -29 89 142 201 269 260 310 382 441 441 475 451 459 455 392 406 448 462 482 508 489 479 402 298 226 255 228 227 101 -33 -218 -300 -300 -300 -300 -300 -300 -300 -300 -300 -300 -300 -300 -300 -300 -300 -300 -300 -300 -300 -300 -300 -300 -300 -300 -300 -300 -300 -300 -300 -300 -300 -300 -300 -300 -219 -175 -111 -75 -115 -189 -237 -241 -232 -268 -300 -300 -300 -300 -300 -300 -300 -300 -300 -300 -300 -300 -300 -300 -300 -300 -300 -300 -300 -300 -300 -300 -300 -300 -300 -300 -300 -300 -300 -300 -300 -300 -300 -300 -285 -221 -227 -196 -103 57 105 82 91 167 223 279 385 441 477 490 491 516 486 475 453 489 503 535 565 556 531 502 488 472 459 443 442 399 353 301 263 114 -20 -147 -168 -133 -87 -69 -100 -152 -237 -265 -265 -281 -300 -300 -300 -225 -185 -176 -157 -99 -44 -101 -141 -152 -156 -111 -39 -8 -19 -70 -50 -89 -169 -181 -154 -176 -272 -300 -300 -300 -300 -300 -300 -270 -163 -127 -68 -97 -105 -116 -111 -31 -42 -130 -142 -184 -228 -218 -208 -216 -263 -280 -276 -247 -247 -257 -267 -235 -209 -224 -278 -300
-300 -300 -300 -300 -300 -300 -300 -300 -300 -300 -300 -300 -300 -300 -300 -300 -300 -300 -300 -300 -300 -300 -300 -300 -300 -300 -300 -300 -300 -300 -300 -300 -300 -229 -150 -111 -64 12 123 253 307 347 322 325 385 454 456 479 481 506 462 474 530 555 569 592 587 594 541 474 343 305 300 215 182 94 -20 -175 -300 -300 -300 -300 -300 -300 -300 -300 -300 -300 -300 -300 -300 -300 -300 -300 -300 -300 -300 -300 -300 -300 -300 -300 -300 -300 -300 -300 -300 -300 -300 -300 -300 -300 -288 -240 -203 -208 -197 -205 -260 -299 -300 -300 -300 -300 -300 -300 -300 -300 -300 -300 -300 -300 -300 -300 -300 -300 -300 -300 -300 -300 -300 -300 -300 -300 -300 -300 -300 -300 -300 -300 -300 -300 -300 -300 -300 -300 -258 -209 -187 -136 -20 116 172 184 144 208 264 327 368 431 502 494 470 478 435 446 411 411 443 466 537 492 470 451 496 506 486 439 446 420 387 315 256 102 -15 -102 -63 -66 -81 -115 -93 -128 -155 -198 -185 -194 -193 -192 -165 -90 -79 -85 -119 -108 -77 -128 -118 -140 -134 -152 -78 -44 16 -8 18 -13 -99 -110 -75 -145 -242 -279 -300 -300 -300 -300 -288 -233 -193 -179 -110 -83 -114 -73 -34 8 -59 -147 -146 -184 -203 -240 -248 -222 -233 -194 -207 -217 -269 -280 -277 -249 -253 -265 -290 -300
-300 -300 -300 -300 -300 -300 -300 -300 -300 -300 -300 -300 -300 -300 -300 -300 -300 -300 -300 -300 -300 -300 -300 -300 -300 -300 -300 -300 -300 -300 -300 -300 -290 -218 -148 -145 -44 64 212 357 421 421 389 382 406 433 442 464 490 514 515 579 606 645 655 683 714 687 648 582 487 410 328 212 150 84 -42 -147 -252 -300 -300 -300 -300 -300 -300 -300 -300 -300 -300 -300 -300 -300 -300 -300 -300 -300 -300 -300 -300 -300 -300 -300 -300 -300 -300 -300 -300 -300 -300 -300 -300 -300 -300 -300 -300 -300 -287 -285 -267 -300 -300 -300 -300 -300 -300 -300 -300 -300 -300 -300 -300 -300 -300 -300 -300 -300 -300 -300 -300 -300 -300 -300 -300 -300 -300 -300 -300 -300 -300 -300 -300 -300 -300 -300 -300 -300 -276 -235 -201 -132 7 120 197 219 195 255 318 384 394 453 463 508 466 438 417 427 412 411 394 453 494 487 446 437 420 431 395 389 395 391 351 291 212 108 39 -11 2 -4 -107 -151 -145 -127 -131 -171 -150 -163 -172 -174 -126 -94 -117 -111 -112 -59 -96 -156 -138 -126 -125 -122 -93 -43 20 62 91 66 -50 -81 -73 -150 -221 -270 -266 -300 -300 -300 -276 -208 -210 -144 -138 -86 -45 -61 -70 -18 -65 -124 -121 -141 -169 -243 -259 -247 -161 -105 -136 -168 -245 -237 -248 -257 -239 -266 -279 -300
-300 -300 -300 -300 -300 -300 -300 -300 -300 -300 -300 -300 -300 -300 -300 -300 -300 -300 -300 -300 -300 -300 -300 -300 -300 -300 -300 -300 -300 -300 -300 -300 -258 -201 -183 -150 3 166 298 376 443 460 436 465 489 475 432 453 513 587 605 666 683 685 698 752 820 814 794 668 574 460 360 250 155 88 -30 -140 -219 -300 -300 -300 -300 -300 -300 -300 -300 -300 -300 -300 -300 -300 -300 -300 -300 -300 -300 -300 -300 -300 -300 -300 -300 -300 -300 -300 -300 -300 -300 -300 -300 -300 -300 -300 -300 -300 -300 -300 -300 -300 -300 -300 -300 -300 -300 -300 -300 -300 -300 -300 -300 -300 -300 -300 -300 -300 -300 -300 -300 -300 -300 -300 -300 -300 -300 -300 -300 -300 -300 -300 -300 -300 -300 -300 -300 -300 -300 -300 -255 -160 -11 142 206 183 227 329 412 485 493 505 506 531 529 497 478 496 491 462 392 417 426 453 437 435 405 415 346 336 345 377 368 293 219 169 71 2 -11 -68 -181 -218 -179 -134 -141 -192 -171 -144 -161 -176 -191 -168 -149 -110 -56 -40 -66 -127 -158 -144 -146 -100 -44 18 74 134 170 109 -19 -37 -58 -114 -159 -187 -183 -209 -282 -286 -257 -183 -140 -96 -93 -49 -18 -92 -114 -56 -35 -103 -114 -151 -174 -220 -225 -192 -100 -34 -55 -120 -205 -232 -217 -223 -226 -248 -260 -300
-300 -300 -300 -300 -300 -300 -300 -300 -300 -300 -300 -300 -300 -300 -300 -300 -300 -300 -300 -300 -300 -300 -300 -300 -277 -300 -300 -300 -300 -300 -300 -300 -258 -242 -242 -159 0 185 297 411 485 543 515 545 545 532 445 449 477 597 665 728 759 770 772 820 848 861 829 769 692 548 381 301 189 110 9 -86 -198 -300 -300 -300 -300 -300 -300 -300 -300 -300 -300 -300 -300 -300 -300 -300 -300 -300 -300 -300 -300 -300 -300 -300 -300 -300 -300 -300 -300 -300 -300 -300 -300 -300 -300 -300 -300 -300 -300 -300 -300 -300 -300 -300 -300 -300 -300 -300 -300 -300 -300 -300 -300 -300 -300 -300 -300 -300 -300 -300 -300 -300 -300 -300 -300 -300 -300 -300 -300 -300 -300 -300 -300 -300 -300 -300 -300 -300 -300 -300 -300 -193 -80 52 90 182 284 354 434 484 495 507 555 570 556 512 555 563 567 495 430 416 409 445 434 423 425 410 376 353 379 383 395 344 267 247 153 24 -37 -94 -198 -238 -228 -178 -191 -226 -211 -183 -183 -168 -176 -185 -180 -139 -36 -2 -64 -131 -168 -140 -138 -109 -10 20 63 121 163 154 86 7 -71 -82 -124 -131 -120 -137 -217 -203 -190 -149 -128 -75 -49 -73 -56 -128 -131 -117 -112 -119 -133 -171 -227 -232 -226 -167 -93 -36 14 -6 -59 -183 -187 -166 -220 -245 -258 -300
-300 -300 -300 -300 -300 -300 -300 -300 -300 -300 -300 -300 -300 -300 -300 -300 -300 -300 -300 -300 -300 -300 -300 -300 -300 -300 -300 -300 -300 -300 -300 -300 -300 -255 -204 -150 1 166 279 432 557 620 573 579 597 578 536 508 507 593 679 757 818 844 837 829 846 878 840 780 706 556 418 303 223 113 7 -93 -218 -300 -300 -300 -300 -300 -300 -300 -300 -300 -300 -300 -300 -300 -300 -300 -300 -300 -300 -300 -300 -300 -300 -300 -300 -300 -300 -300 -300 -300 -300 -300 -300 -300 -300 -300 -300 -300 -300 -288 -300 -300 -300 -300 -300 -300 -300 -300 -300 -300 -300 -300 -300 -300 -300 -300 -300 -300 -300 -300 -300 -300 -300 -300 -300 -300 -300 -300 -300 -300 -300 -300 -300 -300 -300 -300 -300 -300 -300 -300 -300 -212 -122 -34 56 172 326 371 439 493 493 534 621 628 591 609 629 617 600 529 517 476 403 467 473 461 489 451 410 406 446 461 466 431 361 310 148 7 -63 -128 -188 -277 -251 -217 -213 -238 -247 -229 -183 -166 -137 -163 -119 -57 -27 -13 -66 -98 -120 -117 -148 -117 0 51 123 185 187 182 166 65 -38 -15 -44 -68 -68 -101 -206 -195 -174 -169 -152 -99 -53 -114 -150 -155 -130 -129 -149 -132 -161 -188 -219 -199 -178 -117 -67 -20 25 57 14 -78 -125 -143 -220 -289 -300 -300
-300 -300 -300 -300 -300 -300 -300 -300 -300 -300 -300 -300 -300 -300 -300 -300 -300 -300 -300 -300 -300 -300 -300 -300 -300 -300 -300 -300 -300 -300 -300 -300 -300 -260 -230 -157 42 212 313 429 573 650 667 625 625 637 579 518 528 613 746 803 858 859 888 887 905 920 834 724 648 527 382 256 150 86 1 -111 -237 -300 -300 -300 -300 -300 -300 -300 -300 -300 -300 -300 -300 -300 -300 -300 -300 -300 -300 -300 -300 -300 -300 -300 -300 -300 -300 -300 -300 -300 -300 -300 -300 -300 -300 -300 -300 -300 -300 -300 -300 -300 -300 -300 -300 -300 -300 -300 -300 -300 -300 -300 -300 -300 -300 -300 -300 -300 -300 -300 -300 -300 -300 -300 -300 -300 -300 -300 -300 -300 -300 -300 -300 -300 -300 -300 -300 -300 -300 -300 -300 -215 -128 -41 56 194 337 369 417 467 466 524 635 688 668 693 703 671 639 618 606 535 501 565 557 544 557 538 492 491 497 522 524 495 427 358 184 29 -70 -157 -205 -261 -285 -293 -247 -257 -274 -256 -205 -175 -139 -114 -50 19 17 -5 -49 -63 -98 -87 -116 -89 31 138 178 237 244 196 171 123 16 28 -20 -47 -39 -69 -181 -169 -205 -234 -223 -155 -68 -87 -146 -163 -108 -93 -95 -118 -149 -168 -197 -176 -149 -73 -17 14 40 73 49 -16 -53 -72 -180 -283 -300 -300
-300 -300 -300 -300 -300 -300 -300 -300 -300 -300 -300 -300 -300 -300 -300 -300 -300 -300 -300 -300 -300 -300 -300 -300 -300 -300 -300 -300 -300 -300 -300 -300 -300 -297 -242 -162 5 205 319 475 607 716 737 698 714 702 604 580 608 662 792 872 936 946 980 953 939 967 881 781 654 521 371 275 143 37 -75 -169 -233 -300 -300 -300 -300 -277 -300 -300 -300 -300 -300 -294 -234 -209 -246 -262 -300 -300 -300 -300 -300 -300 -300 -300 -300 -300 -300 -300 -300 -300 -300 -300 -300 -300 -300 -300 -300 -300 -292 -300 -300 -300 -300 -300 -300 -300 -300 -285 -295 -300 -300 -300 -300 -300 -300 -300 -300 -300 -300 -300 -300 -300 -300 -300 -300 -300 -300 -300 -300 -300 -300 -300 -300 -300 -300 -300 -300 -300 -300 -300 -300 -215 -143 -61 -14 113 256 311 410 463 524 587 640 708 730 735 753 738 655 635 665 597 546 629 652 663 666 614 600 586 636 627 573 515 472 365 194 45 -71 -157 -218 -252 -248 -300 -283 -263 -272 -247 -207 -188 -143 -40 0 30 8 -12 -31 -48 -77 -83 -91 -43 5 152 219 272 262 268 236 185 104 55 23 -16 -33 -97 -171 -210 -228 -255 -213 -181 -136 -151 -164 -194 -150 -121 -92 -129 -116 -164 -167 -143 -99 -29 8 27 31 50 61 -16 -20 -71 -187 -300 -300 -300
-300 -300 -300 -300 -300 -300 -300 -300 -300 -300 -300 -300 -300 -300 -300 -300 -300 -300 -300 -300 -300 -300 -300 -300 -300 -300 -300 -300 -300 -300 -300 -300 -300 -300 -244 -182 -47 141 331 488 615 714 767 739 730 728 684 673 683 763 884 971 1015 1010 1009 1036 1012 992 911 817 675 507 387 275 189 48 -77 -134 -153 -277 -300 -300 -292 -241 -297 -300 -300 -300 -278 -220 -154 -105 -116 -156 -222 -300 -300 -300 -300 -300 -300 -300 -300 -300 -300 -300 -300 -300 -300 -300 -300 -300 -300 -300 -282 -235 -247 -276 -290 -294 -300 -300 -300 -300 -300 -300 -300 -300 -300 -300 -300 -300 -300 -300 -300 -300 -300 -300 -300 -300 -300 -300 -300 -300 -300 -300 -300 -300 -300 -300 -300 -300 -300 -300 -300 -300 -300 -300 -300 -282 -212 -135 -51 25 145 260 365 469 598 644 677 729 794 794 810 811 702 681 660 587 544 603 670 729 767 695 700 708 749 740 649 553 511 352 201 91 -76 -143 -200 -223 -238 -283 -300 -288 -266 -257 -247 -182 -143 -70 -63 -31 -38 -22 14 -28 -40 -62 -54 12 66 189 283 278 270 326 294 267 184 72 8 5 -82 -122 -173 -205 -227 -212 -173 -149 -211 -221 -212 -240 -244 -205 -112 -127 -144 -186 -195 -175 -109 -50 -38 0 7 58 29 -32 -48 -73 -152 -247 -300 -300
-300 -300 -300 -300 -300 -300 -300 -300 -300 -300 -300 -300 -300 -300 -300 -300 -300 -300 -300 -300 -285 -272 -276 -231 -246 -283 -300 -300 -300 -300 -300 -300 -300 -287 -250 -192 -43 134 333 433 576 680 750 744 748 723 738 747 766 831 894 987 1010 1030 1029 1083 1015 987 910 810 690 536 413 282 167 101 15 -52 -51 -149 -206 -176 -185 -185 -218 -233 -221 -247 -190 -140 -74 -73 -44 -62 -153 -229 -297 -300 -300 -300 -300 -300 -300 -300 -300 -300 -300 -300 -300 -300 -300 -300 -300 -300 -300 -300 -300 -300 -300 -300 -300 -300 -300 -300 -300 -300 -300 -300 -300 -300 -300 -300 -300 -300 -300 -300 -300 -300 -300 -300 -300 -300 -300 -300 -300 -300 -300 -300 -300 -300 -300 -300 -300 -300 -300 -300 -300 -300 -300 -300 -252 -187 -56 81 145 249 381 494 621 686 726 797 863 858 886 866 738 668 649 602 526 547 617 694 757 718 703 715 756 737 645 592 538 339 183 113 -27 -111 -192 -236 -294 -300 -300 -300 -300 -283 -300 -251 -217 -142 -108 -98 -62 13 67 21 -28 -42 -22 32 101 227 302 284 308 350 318 296 226 105 52 38 -82 -132 -147 -131 -181 -167 -143 -111 -207 -258 -270 -300 -295 -259 -152 -129 -135 -151 -137 -124 -136 -93 -70 -24 1 56 51 -14 -60 -92 -149 -231 -265 -293
-300 -300 -300 -300 -300 -300 -300 -300 -300 -300 -300 -300 -300 -300 -300 -300 -300 -300 -300 -300 -254 -205 -222 -206 -241 -251 -285 -252 -273 -300 -300 -300 -300 -274 -231 -133 -32 127 313 410 500 639 699 708 676 695 718 784 826 873 903 991 1009 1049 1077 1068 1046 966 868 745 645 525 421 334 231 146 105 61 20 3 -27 -54 -59 -89 -140 -141 -140 -141 -164 -149 -95 -78 -39 -83 -155 -213 -289 -294 -300 -300 -300 -300 -300 -300 -300 -300 -300 -300 -300 -300 -300 -300 -300 -300 -300 -300 -300 -300 -300 -300 -300 -300 -300 -300 -300 -300 -300 -300 -300 -300 -300 -300 -300 -300 -300 -300 -300 -300 -300 -300 -300 -300 -300 -300 -300 -300 -300 -300 -300 -300 -300 -300 -300 -300 -300 -300 -300 -300 -300 -278 -227 -129 -9 95 196 321 456 628 727 747 792 847 897 930 895 821 770 696 666 587 537 517 554 632 695 699 700 742 761 712 662 566 473 274 155 107 -32 -141 -216 -262 -294 -300 -300 -297 -300 -300 -300 -300 -266 -211 -178 -143 -54 7 21 44 40 53 59 61 140 236 318 375 350 314 322 292 239 124 60 -34 -131 -207 -151 -138 -159 -126 -139 -154 -198 -223 -268 -300 -300 -300 -238 -204 -188 -148 -102 -70 -81 -104 -14 27 90 122 68 17 -29 -33 -103 -170 -251 -288
-300 -300 -300 -300 -300 -300 -300 -300 -300 -300 -285 -300 -300 -300 -286 -300 -300 -300 -300 -223 -197 -144 -192 -255 -278 -276 -271 -216 -239 -260 -272 -290 -292 -230 -237 -130 11 145 290 392 496 608 638 633 616 618 669 782 834 882 914 969 1001 1048 1061 1054 1011 948 844 721 644 546 487 429 307 174 163 159 88 87 111 89 54 -20 -57 -21 -18 -18 -53 -117 -99 -32 -15 -43 -156 -231 -290 -277 -290 -291 -300 -300 -300 -300 -300 -300 -300 -300 -300 -300 -300 -300 -300 -300 -300 -300 -300 -300 -300 -291 -300 -300 -300 -300 -300 -300 -300 -300 -300 -300 -300 -300 -300 -300 -300 -300 -300 -300 -300 -300 -300 -300 -300 -300 -300 -300 -300 -300 -300 -300 -300 -300 -300 -300 -300 -300 -300 -300 -300 -255 -128 -27 24 122 232 370 539 725 805 802 799 819 879 902 864 773 755 745 711 623 588 580 583 618 652 659 729 773 738 671 596 489 338 196 103 79 27 -121 -228 -254 -263 -268 -215 -213 -245 -274 -300 -282 -249 -213 -158 -121 -51 30 32 50 71 97 87 71 125 217 336 380 345 321 301 206 161 104 10 -76 -172 -240 -239 -213 -146 -120 -137 -186 -261 -279 -293 -300 -300 -300 -300 -250 -196 -130 -66 -63 -47 -27 54 128 161 123 84 37 -20 -6 -44 -117 -213 -256
-300 -300 -300 -300 -300 -300 -300 -300 -300 -300 -245 -278 -300 -280 -270 -282 -300 -300 -266 -206 -173 -133 -185 -257 -248 -250 -234 -186 -205 -232 -221 -209 -239 -239 -200 -117 -15 107 234 393 508 596 630 601 614 552 605 703 802 865 901 948 954 972 960 960 893 842 770 735 661 547 445 382 269 149 153 140 98 140 165 173 157 87 80 114 144 133 36 -25 -11 -5 -25 -40 -93 -192 -274 -277 -273 -233 -300 -300 -300 -300 -300 -300 -300 -300 -300 -300 -300 -300 -300 -300 -300 -300 -300 -300 -300 -300 -300 -300 -300 -300 -300 -300 -300 -300 -300 -300 -300 -300 -300 -300 -300 -300 -300 -300 -300 -300 -300 -300 -300 -300 -300 -300 -300 -300 -300 -300 -300 -300 -300 -300 -300 -300 -300 -300 -274 -200 -83 86 143 236 342 445 582 773 849 872 829 808 817 818 820 797 820 801 806 746 683 676 654 674 664 678 693 709 718 648 553 428 239 127 125 90 30 -47 -146 -176 -220 -228 -199 -180 -194 -228 -234 -217 -153 -121 -49 16 69 87 63 35 63 111 144 123 152 201 279 306 352 327 280 205 95 42 -8 -77 -198 -271 -287 -201 -116 -107 -125 -174 -296 -300 -300 -300 -300 -300 -300 -249 -180 -162 -84 -75 -27 42 126 172 229 208 159 102 59 19 -6 -75 -192 -245
-300 -300 -300 -300 -300 -300 -300 -300 -300 -275 -226 -250 -271 -265 -263 -281 -300 -300 -283 -211 -174 -153 -196 -258 -254 -227 -201 -154 -173 -177 -136 -146 -154 -209 -179 -136 -21 141 239 401 511 541 541 542 541 525 596 681 788 842 888 905 932 901 868 894 836 755 715 720 634 533 411 371 254 159 125 121 134 165 198 240 241 210 234 256 255 243 145 93 18 14 -21 -12 -53 -151 -243 -292 -266 -215 -203 -257 -300 -300 -300 -300 -300 -300 -300 -300 -300 -300 -300 -300 -300 -300 -300 -300 -300 -300 -300 -300 -300 -300 -300 -300 -300 -300 -300 -300 -300 -300 -300 -300 -300 -300 -300 -300 -300 -300 -300 -300 -300 -300 -300 -300 -300 -300 -300 -300 -300 -300 -300 -300 -300 -300 -300 -300 -238 -142 -34 99 228 312 451 517 624 781 885 903 815 769 789 771 794 815 823 819 827 833 789 766 687 655 667 641 642 693 657 594 483 394 233 139 108 122 58 0 -85 -124 -136 -166 -143 -83 -121 -163 -124 -121 -76 14 34 77 151 149 133 76 82 167 215 194 228 248 272 291 352 359 282 164 67 6 -38 -124 -194 -232 -228 -211 -157 -79 -102 -185 -263 -300 -300 -300 -300 -300 -300 -259 -215 -148 -93 -38 3 93 196 258 332 292 233 143 108 58 34 -20 -133 -162
-300 -300 -300 -300 -300 -300 -300 -300 -300 -292 -279 -247 -262 -286 -285 -273 -280 -282 -300 -258 -218 -217 -261 -265 -238 -203 -213 -181 -132 -121 -73 -108 -109 -108 -119 -79 45 193 289 371 430 406 394 396 440 551 585 617 748 805 863 848 899 906 850 830 784 709 668 633 592 545 431 397 329 254 200 174 198 256 253 255 287 285 276 283 329 323 251 177 67 26 -10 -40 -85 -142 -243 -299 -266 -195 -174 -207 -261 -300 -300 -300 -300 -300 -300 -300 -300 -300 -300 -300 -300 -300 -300 -273 -300 -300 -300 -300 -300 -300 -300 -300 -300 -300 -300 -300 -300 -300 -300 -300 -300 -300 -300 -300 -300 -300 -300 -300 -300 -300 -300 -300 -300 -300 -300 -300 -300 -300 -300 -300 -300 -300 -300 -269 -155 -71 5 86 208 381 533 641 755 843 913 947 844 760 768 763 811 789 781 792 828 868 865 804 699 647 677 670 647 657 620 523 432 382 281 224 163 137 106 35 -52 -63 -29 -39 -26 -9 -68 -104 -99 -81 -5 81 107 90 166 225 211 190 205 270 257 279 322 337 343 322 330 329 230 138 56 -5 -75 -140 -161 -180 -189 -198 -194 -113 -111 -196 -247 -295 -300 -300 -300 -300 -300 -268 -190 -112 -40 8 53 176 287 383 412 337 332 246 123 54 0 -54 -125 -159
-300 -300 -300 -300 -300 -300 -300 -300 -300 -300 -300 -300 -272 -300 -300 -262 -290 -300 -300 -293 -220 -241 -253 -271 -244 -235 -215 -198 -145 -135 -60 -83 -86 -40 -14 34 90 179 298 379 414 347 308 324 420 496 526 614 707 726 751 765 841 841 840 770 736 653 592 552 552 526 490 472 393 338 285 268 255 310 311 274 303 338 313 349 355 327 294 218 166 107 70 -25 -122 -116 -198 -223 -192 -166 -133 -159 -159 -223 -274 -300 -300 -300 -300 -300 -300 -300 -300 -300 -300 -300 -300 -209 -218 -294 -300 -300 -300 -300 -300 -300 -300 -300 -300 -300 -300 -300 -300 -300 -300 -300 -300 -300 -300 -300 -300 -300 -300 -300 -300 -300 -300 -300 -300 -300 -300 -300 -300 -300 -300 -300 -300 -288 -125 -24 90 164 254 402 580 760 842 892 938 912 822 715 722 720 784 805 803 804 826 850 863 785 709 650 683 664 673 638 585 462 408 348 307 292 247 167 154 119 50 46 57 48 13 42 17 -23 -31 0 76 126 127 128 227 251 230 227 272 350 316 294 321 364 362 326 355 354 248 147 51 -11 -102 -162 -202 -175 -189 -182 -200 -145 -178 -229 -256 -268 -298 -300 -300 -300 -300 -240 -123 -32 26 56 97 240 330 414 416 375 301 267 170 62 -17 -48 -117 -170
-300 -300 -300 -300 -300 -300 -300 -300 -300 -300 -300 -300 -300 -300 -300 -300 -282 -300 -300 -286 -219 -239 -249 -280 -238 -213 -216 -176 -148 -115 -102 -112 -111 -50 27 41 79 134 205 310 353 335 295 344 400 475 551 611 641 683 705 711 791 817 827 745 669 599 535 520 526 532 556 493 438 383 382 351 343 374 338 308 335 327 330 337 351 358 320 284 246 181 176 50 -82 -75 -130 -145 -119 -104 -90 -81 -86 -170 -225 -300 -300 -300 -300 -300 -300 -300 -300 -285 -291 -300 -263 -218 -186 -236 -268 -300 -300 -300 -300 -300 -300 -300 -300 -300 -300 -300 -300 -300 -300 -300 -300 -300 -300 -300 -300 -300 -300 -300 -300 -300 -300 -300 -300 -300 -300 -300 -300 -300 -300 -300 -300 -251 -82 45 140 164 270 409 586 791 860 940 963 930 827 732 729 719 792 824 862 860 846 836 840 767 728 708 747 722 720 691 603 497 429 348 354 371 308 247 244 236 200 149 136 91 54 75 50 24 40 28 58 117 149 186 249 256 289 253 316 373 356 315 328 366 359 375 381 376 306 195 83 -40 -141 -199 -265 -239 -188 -205 -210 -217 -265 -279 -257 -269 -300 -276 -261 -266 -225 -165 -54 30 72 99 154 241 333 398 376 364 279 235 152 68 -13 -52 -130 -212
-300 -300 -300 -300 -300 -300 -300 -300 -300 -300 -300 -300 -300 -300 -300 -300 -300 -300 -300 -274 -238 -263 -257 -252 -236 -235 -201 -161 -187 -145 -144 -124 -139 -101 -40 -11 82 121 153 179 234 270 256 318 394 500 568 591 611 633 648 725 786 815 814 726 644 589 565 553 564 595 583 499 434 413 457 457 431 419 424 365 326 337 356 371 361 402 396 330 259 210 192 102 58 39 -36 0 20 -2 -9 10 -2 -104 -161 -248 -300 -300 -300 -300 -300 -300 -280 -235 -233 -256 -234 -239 -251 -269 -258 -300 -300 -300 -300 -300 -300 -300 -300 -300 -300 -300 -300 -300 -300 -300 -300 -300 -300 -300 -300 -300 -300 -300 -300 -300 -300 -300 -300 -300 -300 -300 -300 -300 -300 -300 -291 -208 -76 49 138 164 290 442 585 742 813 908 900 933 901 850 810 802 823 837 890 912 885 848 815 747 724 746 795 832 783 707 647 574 499 452 428 409 409 327 252 256 257 255 201 150 151 144 90 74 98 65 48 96 170 204 205 227 289 292 294 318 341 385 381 391 368 396 352 345 325 249 118 -24 -137 -192 -258 -300 -260 -247 -281 -296 -263 -290 -274 -287 -300 -299 -272 -282 -226 -157 -83 -16 113 169 214 272 324 353 336 333 283 210 177 141 60 -61 -126 -187
-300 -300 -300 -300 -300 -300 -300 -300 -300 -300 -300 -300 -300 -300 -295 -300 -267 -300 -300 -275 -244 -287 -279 -280 -300 -265 -252 -212 -233 -211 -187 -173 -203 -158 -89 -80 17 47 85 73 120 173 202 244 350 478 526 566 553 567 623 689 682 720 745 741 671 578 544 524 520 561 544 477 425 456 511 530 554 525 487 435 390 380 403 401 418 475 458 394 288 221 202 176 110 82 58 109 120 118 96 124 98 12 -71 -174 -259 -300 -300 -282 -265 -249 -165 -169 -230 -193 -181 -162 -208 -215 -206 -258 -300 -300 -300 -300 -300 -300 -300 -300 -300 -300 -300 -300 -300 -300 -300 -300 -300 -300 -300 -300 -300 -300 -300 -300 -300 -300 -300 -300 -300 -300 -300 -300 -300 -300 -211 -125 -9 115 179 195 310 459 600 724 800 914 887 892 907 890 855 889 860 875 900 960 911 872 829 807 821 846 821 846 823 743 692 686 607 555 540 516 460 391 311 300 287 272 247 210 187 148 97 102 97 64 47 69 179 255 226 244 267 315 328 307 348 389 359 375 345 379 348 338 339 289 146 28 -103 -177 -251 -277 -259 -265 -300 -280 -289 -300 -289 -300 -300 -300 -287 -300 -215 -105 -76 2 93 113 196 264 309 332 341 373 333 199 179 140 66 -64 -150 -220
-300 -300 -300 -300 -300 -300 -300 -300 -300 -300 -300 -300 -300 -300 -297 -278 -274 -275 -300 -296 -278 -296 -300 -300 -300 -300 -300 -300 -300 -277 -240 -255 -231 -217 -173 -123 -49 -12 -10 -27 -5 82 133 188 288 400 477 521 495 518 562 583 616 638 685 705 678 579 549 487 513 515 490 435 453 503 572 614 628 635 604 520 475 439 468 471 501 502 513 437 286 212 190 160 126 123 172 217 200 221 198 212 202 136 36 -55 -188 -258 -235 -210 -157 -128 -110 -111 -137 -151 -133 -137 -170 -169 -152 -174 -260 -295 -300 -300 -300 -300 -300 -300 -300 -300 -300 -300 -300 -300 -300 -300 -300 -300 -300 -300 -300 -300 -300 -300 -300 -300 -300 -300 -300 -300 -296 -262 -276 -216 -159 -95 51 153 236 270 365 472 608 735 823 879 852 880 915 925 890 917 898 900 932 963 938 914 888 864 898 925 854 834 810 745 756 746 673 657 624 596 517 440 368 337 334 308 306 246 198 159 99 120 115 121 112 130 204 253 273 268 262 294 334 360 326 329 359 342 339 337 339 330 317 254 145 49 -73 -199 -233 -255 -272 -279 -283 -299 -300 -300 -300 -300 -300 -300 -300 -300 -222 -82 -41 39 60 84 156 222 267 313 381 377 351 241 196 182 58 -62 -141 -227
-300 -300 -300 -300 -300 -300 -300 -300 -300 -300 -300 -300 -300 -300 -300 -300 -293 -300 -300 -300 -300 -300 -300 -300 -300 -300 -300 -300 -300 -300 -300 -300 -300 -300 -273 -214 -176 -99 -87 -77 -65 33 96 161 239 343 412 448 454 460 451 476 563 626 695 720 695 576 539 527 521 464 492 484 475 525 625 667 685 707 659 570 505 496 513 485 503 467 459 429 307 241 198 168 142 170 259 341 282 226 223 232 206 155 92 32 -78 -133 -115 -113 -81 -11 -9 -38 -65 -102 -107 -131 -114 -133 -150 -187 -224 -264 -275 -292 -300 -300 -300 -300 -300 -300 -300 -300 -300 -300 -300 -300 -300 -300 -300 -300 -300 -300 -300 -292 -300 -300 -300 -300 -300 -270 -203 -182 -220 -187 -112 -29 30 117 263 349 424 505 591 702 773 804 825 877 944 994 940 932 932 965 975 937 918 930 953 926 981 1000 925 884 848 796 776 785 704 650 639 641 584 496 425 369 350 312 295 228 207 211 182 176 148 145 161 184 250 261 278 210 207 282 317 366 349 350 367 346 367 331 289 267 263 239 142 79 -49 -234 -300 -300 -300 -300 -300 -300 -300 -300 -300 -300 -300 -300 -300 -300 -300 -172 -88 5 81 154 208 250 297 340 410 351 271 219 247 228 111 26 -41 -121
-300 -300 -300 -300 -300 -300 -300 -300 -300 -300 -300 -300 -300 -300 -300 -300 -300 -300 -291 -300 -281 -300 -300 -300 -300 -300 -300 -300 -300 -300 -300 -300 -300 -300 -300 -276 -243 -191 -186 -175 -131 -55 45 90 137 213 313 370 410 429 440 440 503 551 641 642 616 589 541 536 460 439 475 526 542 558 701 742 722 744 713 601 548 556 530 536 519 487 482 454 364 296 240 235 237 294 358 389 317 289 303 303 248 147 135 122 37 -29 -34 30 65 104 145 96 17 12 -34 -108 -87 -88 -134 -143 -152 -248 -285 -300 -300 -300 -300 -300 -300 -300 -300 -300 -300 -300 -300 -300 -300 -300 -300 -300 -300 -291 -274 -220 -219 -232 -208 -231 -262 -198 -162 -185 -184 -137 -67 -13 20 148 286 436 469 543 657 709 763 768 794 901 993 1044 983 959 937 929 946 900 908 970 974 966 982 1032 1024 947 853 839 833 842 777 734 704 679 607 506 481 442 417 364 339 287 241 218 180 188 204 194 202 233 243 240 273 214 170 247 287 300 383 394 370 341 359 288 257 239 256 179 52 -6 -100 -203 -275 -300 -300 -300 -300 -300 -300 -300 -300 -300 -300 -300 -300 -300 -300 -274 -111 -31 26 122 204 268 320 368 385 321 213 206 195 181 126 38 -41 -61
-300 -300 -300 -300 -300 -300 -300 -300 -300 -300 -300 -300 -300 -300 -300 -300 -300 -273 -275 -254 -271 -297 -300 -300 -300 -300 -300 -300 -300 -300 -300 -300 -300 -300 -300 -300 -280 -297 -282 -263 -197 -119 -36 7 48 146 264 305 366 410 440 447 473 483 561 600 539 535 546 526 471 459 527 573 603 668 776 845 781 765 729 610 555 576 593 598 534 485 503 501 445 393 378 386 380 376 421 441 377 375 378 383 284 171 180 155 79 30 44 91 159 209 244 215 153 112 55 -40 -54 -59 -97 -114 -99 -205 -300 -300 -300 -300 -300 -300 -300 -300 -300 -300 -300 -300 -300 -300 -300 -300 -300 -270 -251 -278 -272 -232 -176 -163 -128 -130 -201 -168 -152 -155 -149 -116 -30 -7 50 155 324 460 569 642 700 711 728 758 812 873 967 1036 1018 953 929 939 945 930 953 978 1008 1004 1060 1099 1106 1030 887 840 856 878 900 853 765 685 639 572 523 495 454 369 412 362 274 211 167 172 214 249 273 258 231 220 228 194 190 264 255 293 414 475 428 362 317 217 184 204 189 97 -28 -87 -153 -193 -252 -287 -300 -300 -300 -300 -300 -300 -300 -300 -300 -300 -300 -300 -300 -300 -184 -83 -44 48 159 296 365 354 330 268 160 126 127 144 93 16 -31 -76
-300 -300 -300 -300 -300 -300 -300 -300 -300 -300 -300 -300 -300 -300 -300 -300 -266 -293 -300 -273 -264 -276 -300 -300 -300 -300 -300 -300 -300 -300 -300 -300 -300 -300 -300 -300 -299 -285 -256 -249 -241 -207 -84 3 37 91 252 325 400 420 406 381 412 462 485 502 495 507 546 528 503 513 558 566 597 720 804 839 789 755 705 620 590 543 551 563 577 527 522 542 527 492 483 493 507 462 491 472 399 379 387 405 344 234 231 182 107 98 124 113 162 199 229 274 264 204 129 36 3 -21 -38 -50 -98 -226 -300 -300 -300 -300 -300 -300 -300 -300 -300 -300 -300 -300 -300 -300 -300 -300 -245 -249 -243 -283 -282 -264 -175 -98 -68 -83 -167 -177 -214 -175 -128 -74 4 37 115 189 323 463 626 667 694 693 728 773 832 911 977 1017 1014 924 922 965 984 1014 1053 1068 1107 1120 1144 1165 1146 1052 960 921 906 880 933 905 810 724 614 607 585 506 466 414 386 312 252 202 194 235 261 272 287 258 250 232 187 197 175 203 242 317 440 467 398 328 288 185 162 169 120 65 -71 -167 -183 -179 -243 -300 -300 -300 -300 -300 -300 -300 -300 -300 -300 -300 -300 -300 -300 -279 -223 -163 -43 71 158 245 285 331 257 171 136 126 142 135 80 4 -39 -104
-300 -300 -300 -300 -300 -300 -300 -300 -300 -300 -300 -300 -300 -271 -254 -259 -274 -292 -300 -216 -215 -251 -295 -300 -300 -300 -300 -300 -300 -300 -300 -300 -300 -300 -300 -300 -300 -296 -300 -269 -231 -180 -52 77 100 154 271 364 406 431 392 355 377 412 476 471 495 513 553 553 567 579 628 624 634 704 808 824 814 729 708 654 615 565 558 605 620 578 573 604 636 584 571 574 565 556 560 527 486 434 445 398 359 276 229 168 87 98 134 129 152 196 191 263 237 185 96 32 -41 -49 -65 -59 -112 -233 -298 -300 -300 -300 -300 -300 -300 -300 -300 -300 -300 -300 -300 -300 -300 -266 -182 -190 -222 -227 -247 -210 -172 -143 -150 -142 -176 -210 -253 -194 -97 -48 -31 52 143 222 312 429 594 646 649 713 774 793 888 934 1009 1013 1002 919 929 1021 1058 1138 1132 1172 1207 1246 1215 1186 1199 1107 1008 1003 974 930 948 898 798 675 596 605 567 507 423 369 303 268 210 127 153 193 221 255 247 251 223 181 108 120 171 181 248 296 403 397 319 255 181 132 54 15 10 -26 -113 -178 -251 -261 -300 -300 -300 -300 -300 -300 -300 -300 -300 -300 -300 -300 -300 -300 -300 -300 -300 -223 -78 -1 66 170 219 278 209 172 127 116 111 114 96 29 -64 -106
-300 -300 -300 -300 -300 -300 -300 -300 -300 -300 -300 -294 -251 -160 -141 -199 -222 -227 -226 -167 -142 -151 -217 -279 -300 -300 -300 -300 -300 -300 -300 -300 -300 -300 -300 -300 -300 -300 -300 -265 -157 -87 -16 120 192 247 310 347 436 462 396 324 326 352 421 464 526 518 535 556 577 622 627 635 661 731 820 791 769 698 687 667 632 636 654 689 692 673 683 705 737 724 693 659 664 661 644 642 579 515 511 451 362 252 178 154 97 110 101 111 133 196 216 217 240 181 36 -52 -93 -96 -113 -84 -97 -166 -223 -256 -286 -277 -286 -300 -300 -282 -260 -295 -300 -300 -300 -300 -278 -214 -170 -211 -224 -208 -181 -177 -226 -240 -248 -191 -216 -261 -276 -232 -139 -37 -15 59 138 204 288 409 560 606 622 727 792 827 890 945 1018 1034 1025 958 945 1049 1119 1196 1244 1265 1253 1267 1242 1234 1259 1187 1092 1078 1022 974 951 845 762 638 564 539 517 454 380 288 273 242 143 66 96 132 121 140 163 146 110 71 35 27 104 164 218 257 298 263 211 124 29 -13 -62 -109 -112 -163 -183 -234 -289 -300 -300 -300 -300 -300 -300 -300 -300 -300 -300 -300 -300 -300 -300 -300 -300 -300 -300 -274 -161 -78 11 140 194 232 207 157 144 122 88 125 123 32 -72 -128
-300 -300 -300 -300 -300 -300 -300 -274 -247 -256 -197 -184 -160 -114 -168 -172 -143 -131 -143 -142 -104 -72 -157 -232 -247 -300 -300 -300 -300 -300 -300 -300 -300 -300 -300 -300 -300 -300 -300 -219 -124 -59 74 160 234 297 375 434 428 421 398 347 349 350 409 453 487 499 552 562 566 622 631 656 668 720 766 769 760 697 687 720 724 688 676 664 644 663 725 759 797 782 810 819 768 762 718 702 628 597 547 459 364 268 174 110 51 31 14 40 90 111 173 181 185 125 51 -70 -71 -62 -93 -72 -128 -150 -215 -209 -219 -178 -197 -209 -240 -253 -222 -199 -265 -300 -300 -300 -281 -222 -159 -157 -169 -164 -157 -178 -247 -274 -293 -258 -234 -267 -293 -259 -152 -56 -12 70 166 247 314 391 510 608 644 738 803 889 936 951 992 1008 999 968 1022 1111 1171 1212 1272 1276 1274 1281 1263 1254 1250 1201 1122 1116 1055 985 960 904 829 682 613 541 526 453 406 326 246 162 42 -46 -32 4 -15 25 83 61 44 -22 -20 10 34 75 90 127 133 115 132 34 -66 -109 -172 -200 -195 -244 -282 -300 -300 -300 -300 -300 -300 -300 -300 -300 -300 -300 -300 -300 -300 -300 -300 -300 -300 -300 -300 -291 -226 -130 -41 109 150 164 185 155 149 157 111 110 102 87 -10 -63
-300 -300 -300 -300 -300 -300 -259 -207 -158 -182 -141 -135 -121 -147 -202 -160 -64 -28 -77 -92 -69 -80 -176 -250 -273 -300 -300 -300 -300 -300 -300 -300 -300 -300 -300 -300 -300 -300 -300 -198 -117 -31 69 173 254 295 383 440 420 390 404 390 323 355 410 436 419 468 535 566 538 613 659 613 663 734 699 730 741 732 721 775 788 757 729 698 681 689 744 829 851 899 963 938 864 802 743 693 613 589 526 420 339 259 182 109 52 24 -13 -30 15 54 92 98 106 123 74 -33 -90 -99 -118 -82 -81 -137 -145 -138 -85 -88 -127 -169 -212 -267 -206 -192 -189 -242 -282 -248 -234 -166 -146 -126 -148 -164 -163 -221 -252 -240 -254 -261 -291 -281 -300 -300 -168 -74 -23 96 232 287 374 449 502 644 714 708 752 842 906 904 929 973 1008 1010 1085 1165 1214 1217 1236 1282 1268 1298 1310 1305 1247 1177 1098 1092 1002 958 920 909 811 709 672 592 552 455 400 300 182 90 -3 -81 -44 -37 -69 -45 11 13 -27 -76 -115 -101 -53 -46 -34 8 35 42 44 3 -96 -167 -227 -299 -300 -300 -300 -300 -300 -300 -300 -300 -300 -300 -300 -300 -300 -300 -300 -300 -300 -300 -300 -300 -300 -300 -300 -300 -205 -120 -43 75 116 89 113 140 170 196 146 121 104 83 -11 -11
-300 -300 -300 -300 -300 -300 -217 -159 -128 -147 -131 -96 -124 -169 -190 -167 -61 -18 -13 -23 -107 -162 -265 -275 -255 -264 -300 -300 -300 -300 -300 -300 -300 -300 -300 -300 -300 -300 -292 -172 -95 -23 100 180 237 303 372 403 420 397 353 345 272 281 340 380 396 433 496 517 489 548 583 554 592 648 626 689 752 784 808 853 846 847 852 820 732 715 804 881 918 949 1002 947 848 753 675 652 579 516 422 300 241 182 101 95 97 88 -9 -62 -30 16 49 53 44 81 32 -54 -111 -147 -184 -119 -70 -84 -91 -27 57 34 -43 -120 -182 -250 -237 -195 -161 -216 -239 -194 -180 -145 -147 -148 -161 -179 -196 -260 -244 -245 -264 -286 -300 -300 -300 -283 -165 -100 -52 94 285 359 400 470 515 604 708 707 724 794 830 807 833 935 1040 1069 1114 1157 1173 1177 1220 1262 1287 1303 1283 1278 1220 1172 1080 1022 957 911 845 826 767 729 638 582 525 407 321 217 135 40 -58 -105 -68 -23 -73 -66 -85 -95 -121 -194 -232 -197 -151 -127 -75 -73 -84 -34 -28 -80 -133 -207 -300 -300 -300 -300 -300 -300 -300 -300 -300 -300 -300 -300 -300 -300 -300 -300 -300 -300 -300 -300 -300 -300 -300 -300 -300 -300 -243 -115 0 39 50 96 111 117 163 200 172 158 131 55 7 55
-300 -300 -300 -300 -300 -300 -211 -118 -71 -72 -132 -95 -100 -158 -223 -217 -96 -47 -35 -93 -154 -205 -300 -300 -300 -300 -300 -300 -300 -300 -300 -300 -300 -300 -300 -300 -300 -300 -231 -150 -87 -18 85 149 216 243 319 346 360 386 372 329 286 266 276 315 344 384 464 494 511 514 514 544 533 565 587 659 754 815 878 938 943 902 908 846 781 798 806 854 913 944 984 977 902 772 688 619 564 510 411 266 147 118 37 28 69 68 49 10 1 -10 -6 -15 -9 61 26 -64 -146 -207 -265 -186 -128 -52 -8 58 139 82 -6 -133 -219 -276 -300 -289 -215 -217 -195 -159 -174 -184 -164 -128 -131 -159 -178 -246 -223 -234 -268 -300 -300 -300 -300 -233 -153 -74 -45 86 219 354 399 443 502 595 659 640 659 707 709 731 753 878 1001 1071 1127 1174 1184 1196 1240 1239 1235 1256 1236 1200 1114 1054 1005 871 830 836 753 742 699 668 608 592 497 412 281 200 113 -33 -106 -128 -88 -66 -138 -160 -186 -183 -195 -233 -225 -261 -262 -262 -223 -207 -172 -172 -159 -211 -235 -300 -300 -300 -300 -300 -300 -300 -300 -300 -300 -300 -300 -300 -300 -300 -300 -300 -300 -300 -300 -300 -300 -300 -300 -300 -300 -300 -279 -107 28 57 86 83 104 125 167 190 155 116 116 91 41 67
-300 -300 -300 -300 -300 -276 -188 -83 0 8 -77 -79 -114 -171 -245 -201 -121 -66 -75 -140 -183 -207 -300 -300 -300 -300 -300 -300 -300 -300 -300 -300 -300 -300 -300 -300 -300 -300 -185 -99 -25 80 134 180 237 293 311 359 363 327 306 276 284 252 224 249 308 352 387 422 458 452 491 489 481 505 584 659 713 838 956 990 987 939 919 865 865 843 820 803 883 926 925 945 915 808 715 691 644 572 462 281 121 57 40 2 19 53 86 75 15 -50 -66 -46 -5 -18 -45 -113 -174 -229 -229 -200 -163 -93 -25 61 109 53 -47 -142 -229 -300 -300 -300 -300 -264 -237 -192 -236 -263 -209 -127 -145 -177 -180 -218 -242 -300 -300 -300 -300 -300 -300 -246 -159 -76 -16 90 200 306 359 420 488 607 617 652 650 636 642 667 753 818 952 1033 1083 1131 1167 1182 1161 1144 1161 1132 1100 1071 988 922 828 754 729 745 706 675 674 667 582 533 459 384 279 188 77 -41 -152 -167 -194 -141 -229 -285 -300 -300 -293 -275 -265 -300 -300 -300 -300 -286 -253 -263 -300 -300 -300 -300 -300 -300 -300 -300 -300 -300 -300 -300 -300 -300 -300 -300 -300 -300 -300 -300 -300 -300 -300 -300 -300 -300 -300 -300 -300 -300 -300 -151 24 125 106 94 98 94 138 132 124 88 78 93 61 78
-300 -274 -244 -225 -229 -175 -104 -37 5 -3 -64 -62 -117 -180 -207 -123 -65 -44 -37 -79 -117 -159 -274 -300 -300 -300 -300 -300 -300 -300 -300 -300 -300 -300 -300 -300 -300 -300 -225 -95 8 131 233 244 268 302 311 368 355 272 236 202 218 163 172 240 285 327 336 358 414 467 481 470 484 486 559 604 668 820 955 997 1004 943 931 901 869 818 815 794 883 927 937 948 864 798 779 737 686 603 451 249 136 62 31 37 64 116 77 30 -40 -69 -75 -114 -73 -108 -174 -201 -204 -235 -229 -221 -144 -61 -17 0 5 -31 -132 -216 -274 -300 -300 -300 -300 -300 -267 -213 -262 -275 -223 -186 -192 -187 -238 -287 -300 -300 -300 -300 -300 -300 -300 -291 -202 -97 17 144 227 309 351 406 490 580 608 665 674 654 670 664 749 787 877 957 1061 1093 1144 1168 1138 1114 1062 1034 1024 908 828 782 697 639 588 605 608 653 641 617 571 512 394 277 189 131 35 -76 -218 -212 -234 -260 -300 -300 -300 -300 -300 -300 -300 -300 -300 -300 -300 -300 -300 -300 -300 -300 -300 -300 -300 -300 -300 -300 -300 -300 -300 -300 -300 -300 -300 -300 -300 -300 -300 -300 -300 -300 -300 -300 -300 -300 -300 -300 -300 -300 -300 -148 34 127 83 49 29 11 31 47 75 73 52 38 20 56
-300 -239 -154 -154 -142 -86 -53 -3 29 32 30 -46 -103 -192 -164 -71 -68 -26 -34 -82 -106 -187 -262 -300 -300 -300 -300 -300 -300 -300 -300 -300 -300 -300 -300 -300 -300 -296 -199 -72 35 152 221 235 281 305 320 351 330 252 183 147 146 142 126 210 219 239 255 285 309 399 484 521 500 492 540 607 665 802 927 992 1008 978 924 909 874 850 821 840 887 903 932 908 858 807 766 733 700 590 458 277 150 121 49 35 63 87 64 24 -34 -86 -98 -129 -155 -162 -206 -198 -234 -236 -266 -244 -215 -123 -103 -57 -75 -98 -169 -253 -300 -300 -300 -300 -300 -300 -300 -300 -300 -300 -254 -191 -217 -207 -276 -300 -300 -300 -300 -300 -300 -300 -300 -295 -195 -73 43 120 179 289 310 360 478 561 594 623 612 582 606 643 732 806 890 926 977 989 1061 1062 1042 1024 1018 962 892 795 723 684 598 521 482 516 586 606 591 592 537 469 338 205 144 53 -36 -141 -222 -254 -289 -300 -300 -300 -300 -300 -300 -300 -300 -300 -300 -300 -300 -300 -300 -300 -300 -300 -300 -300 -300 -300 -300 -300 -300 -300 -300 -300 -300 -300 -300 -300 -300 -300 -300 -300 -300 -300 -300 -300 -300 -300 -300 -300 -300 -300 -300 -171 -15 100 97 73 34 -19 -52 -17 -16 3 -11 9 -15 51
-271 -167 -55 -58 -37 0 45 19 18 27 28 -27 -73 -100 -47 -48 -57 -29 -60 -97 -117 -185 -300 -300 -300 -300 -300 -300 -300 -300 -300 -300 -300 -300 -300 -300 -273 -189 -103 -34 66 115 211 221 284 301 292 268 274 238 210 155 108 162 159 201 178 182 223 295 283 300 431 468 475 491 523 590 637 742 869 924 977 995 934 928 936 885 853 906 905 907 926 929 886 814 730 690 662 540 431 293 144 75 14 13 50 6 -8 27 -4 -59 -103 -126 -169 -215 -234 -232 -247 -300 -300 -300 -265 -204 -169 -90 -85 -105 -174 -263 -300 -300 -300 -300 -300 -300 -300 -300 -300 -300 -281 -241 -247 -235 -300 -300 -300 -300 -300 -300 -300 -300 -300 -300 -258 -93 8 77 143 260 304 364 433 493 506 556 540 505 514 604 688 814 897 894 938 992 998 965 949 926 919 835 729 674 602 551 501 434 399 470 540 535 529 509 500 438 337 245 153 32 -68 -156 -230 -262 -300 -300 -300 -300 -300 -300 -300 -300 -300 -300 -300 -300 -300 -300 -300 -300 -300 -300 -300 -300 -300 -300 -300 -300 -300 -300 -300 -300 -300 -300 -300 -300 -300 -300 -300 -300 -300 -300 -300 -300 -300 -300 -300 -300 -300 -300 -300 -214 -94 32 79 105 58 -28 -102 -94 -79 -88 -63 -58 -10 35
-142 -42 63 71 110 125 74 22 -9 -10 -9 -14 -2 -2 -5 -16 -13 -30 -62 -72 -153 -189 -279 -300 -300 -300 -300 -300 -300 -300 -300 -300 -300 -300 -300 -300 -197 -165 -85 -5 138 169 187 203 285 267 262 262 266 239 202 185 140 167 188 226 176 184 237 261 243 264 334 366 419 489 534 567 588 673 763 823 911 952 955 987 974 906 934 981 961 953 963 952 860 786 742 686 650 521 362 221 100 -10 -77 -76 -31 -91 -115 -66 -88 -82 -89 -72 -111 -204 -251 -279 -300 -300 -300 -300 -300 -290 -233 -154 -141 -188 -266 -300 -300 -300 -300 -300 -300 -300 -300 -300 -300 -300 -300 -300 -300 -300 -300 -300 -300 -300 -300 -300 -300 -300 -300 -300 -300 -185 -44 68 154 265 299 374 410 426 403 465 500 506 532 643 719 841 873 843 884 969 950 897 870 843 769 674 580 474 417 410 391 379 431 494 509 447 485 502 485 437 362 289 194 95 -27 -121 -199 -241 -300 -300 -300 -300 -300 -300 -300 -300 -300 -300 -300 -300 -300 -300 -300 -300 -300 -300 -300 -300 -300 -300 -300 -300 -300 -300 -300 -300 -300 -300 -300 -300 -300 -300 -300 -300 -300 -300 -300 -300 -300 -300 -300 -300 -300 -300 -300 -262 -144 -27 38 76 63 -5 -70 -83 -110 -144 -144 -168 -88 -30
-38 115 153 179 206 191 152 78 -27 -64 -47 1 15 47 34 22 10 -22 -105 -132 -173 -221 -280 -300 -300 -300 -300 -300 -300 -300 -300 -300 -300 -300 -300 -300 -224 -134 -54 27 83 143 144 183 269 284 231 208 181 195 184 173 175 206 195 221 182 210 216 232 189 178 201 300 363 447 537 561 555 638 714 776 816 867 977 987 962 937 955 1005 986 968 969 940 829 737 695 682 584 465 331 208 65 -78 -121 -99 -98 -126 -151 -181 -161 -162 -104 -101 -145 -219 -283 -300 -300 -300 -300 -300 -300 -300 -264 -179 -201 -254 -300 -300 -300 -300 -300 -300 -300 -300 -300 -300 -300 -300 -300 -300 -300 -300 -300 -300 -300 -300 -300 -300 -300 -300 -300 -300 -300 -251 -95 44 139 242 294 359 373 357 360 442 510 558 549 631 727 783 806 792 866 933 911 814 710 689 631 568 441 381 316 341 369 384 454 488 414 375 434 453 460 461 397 337 284 183 103 -20 -97 -193 -265 -300 -300 -300 -300 -300 -300 -300 -300 -300 -300 -300 -300 -300 -300 -300 -300 -300 -300 -300 -300 -300 -300 -300 -300 -300 -300 -300 -300 -300 -300 -300 -300 -300 -300 -300 -300 -300 -300 -300 -300 -300 -300 -300 -300 -300 -300 -258 -183 -66 -9 38 56 34 -26 -105 -122 -167 -201 -210 -141 -43
-36 143 212 265 253 241 222 143 21 -21 -6 23 24 7 -9 36 12 -23 -104 -175 -228 -256 -300 -300 -300 -300 -300 -300 -300 -300 -300 -300 -300 -300 -300 -300 -300 -182 -35 53 18 42 87 123 223 271 224 154 126 162 114 124 153 208 191 152 196 242 224 184 161 166 183 264 342 423 471 539 583 646 723 761 808 857 950 944 927 929 993 982 914 906 910 877 783 703 646 625 507 388 311 189 53 -103 -135 -102 -90 -142 -225 -226 -189 -200 -162 -165 -168 -214 -296 -300 -300 -300 -300 -300 -300 -300 -282 -268 -274 -300 -300 -300 -300 -300 -300 -300 -300 -300 -300 -300 -300 -300 -300 -300 -300 -300 -300 -300 -300 -300 -300 -300 -300 -300 -300 -300 -300 -257 -102 21 110 162 261 282 274 287 307 366 428 543 608 624 700 697 683 717 813 824 792 689 595 568 558 485 359 363 351 320 355 390 391 383 302 331 397 418 426 438 403 380 331 212 142 64 13 -36 -147 -222 -288 -300 -300 -300 -300 -300 -300 -300 -300 -300 -300 -300 -300 -300 -300 -300 -300 -300 -300 -300 -300 -300 -300 -300 -300 -300 -300 -300 -300 -300 -300 -300 -300 -300 -300 -300 -300 -300 -300 -300 -300 -300 -300 -300 -300 -273 -193 -120 -45 6 32 19 -38 -120 -172 -198 -228 -205 -137 -93
-60 118 212 269 274 299 245 171 50 4 14 27 -9 -63 -58 -5 -63 -83 -126 -229 -278 -300 -300 -300 -300 -300 -300 -300 -300 -300 -300 -300 -300 -300 -300 -300 -300 -225 -73 -22 0 41 40 58 154 233 193 110 41 102 105 76 99 145 172 116 130 172 172 151 161 193 205 265 292 374 400 436 493 536 628 674 759 837 929 931 905 884 930 956 927 901 891 836 705 634 554 528 414 323 255 123 39 -82 -88 -121 -142 -234 -288 -223 -199 -201 -171 -195 -228 -300 -300 -300 -300 -300 -300 -300 -300 -300 -300 -300 -300 -300 -300 -300 -300 -300 -300 -300 -300 -300 -300 -300 -300 -300 -300 -300 -300 -300 -300 -300 -300 -300 -300 -300 -300 -300 -300 -300 -300 -300 -154 -53 28 19 90 142 182 219 266 327 409 498 563 594 658 622 626 677 715 690 673 637 598 586 529 432 350 326 387 409 372 368 377 352 296 342 389 424 448 445 394 336 289 240 147 96 96 92 -35 -123 -217 -291 -300 -300 -300 -300 -300 -300 -300 -300 -300 -300 -300 -300 -300 -300 -300 -300 -300 -300 -300 -300 -300 -300 -300 -300 -300 -300 -300 -300 -300 -300 -300 -300 -300 -300 -300 -300 -300 -300 -300 -300 -300 -300 -300 -300 -253 -223 -141 -102 -59 -57 -95 -115 -147 -186 -256 -225 -130 -104
-140 24 161 253 292 337 277 209 99 16 14 3 -14 -73 -73 -92 -111 -157 -203 -290 -300 -300 -300 -300 -300 -300 -300 -300 -300 -300 -300 -300 -300 -300 -300 -300 -300 -297 -161 -89 -62 -5 7 45 121 198 149 83 31 27 48 51 57 96 114 105 100 143 146 149 153 207 259 244 272 321 352 367 420 447 531 633 734 792 863 919 904 914 926 957 912 865 843 773 695 582 517 460 351 276 192 133 52 -28 -47 -94 -207 -268 -300 -227 -187 -146 -162 -199 -233 -300 -300 -300 -300 -300 -300 -300 -300 -300 -300 -300 -300 -300 -300 -300 -300 -300 -300 -300 -300 -300 -300 -300 -300 -300 -300 -300 -300 -300 -300 -300 -300 -300 -300 -300 -300 -300 -300 -300 -300 -300 -231 -129 -99 -72 -27 14 82 154 253 257 354 488 578 629 629 582 569 557 587 590 593 595 612 561 515 407 328 312 409 457 444 395 380 340 298 332 323 380 442 446 393 330 295 248 197 169 177 140 105 7 -118 -258 -300 -300 -300 -300 -300 -300 -300 -300 -300 -300 -300 -300 -300 -300 -300 -300 -300 -300 -300 -300 -300 -300 -300 -300 -300 -300 -300 -300 -300 -300 -300 -300 -300 -300 -300 -300 -300 -300 -300 -300 -300 -300 -300 -300 -300 -255 -192 -141 -121 -102 -108 -128 -143 -144 -233 -223 -195 -156
-147 -47 88 219 285 290 269 213 86 19 9 -17 -1 -9 0 -59 -137 -242 -297 -300 -300 -300 -300 -300 -300 -300 -300 -300 -300 -300 -300 -300 -300 -300 -300 -300 -300 -300 -195 -180 -172 -89 -41 7 58 120 87 68 27 16 -4 -32 -27 29 56 67 46 82 95 99 129 215 265 228 299 320 304 321 397 423 479 579 667 741 797 846 899 935 917 923 871 819 761 702 684 617 564 478 381 312 246 164 36 -16 -31 -108 -200 -251 -283 -246 -192 -186 -215 -203 -300 -300 -300 -300 -300 -300 -300 -300 -300 -300 -300 -300 -300 -300 -300 -300 -300 -300 -300 -300 -300 -300 -300 -300 -300 -300 -300 -300 -300 -300 -300 -300 -300 -300 -300 -300 -300 -300 -300 -300 -300 -300 -300 -249 -187 -152 -128 -50 19 30 144 205 343 483 576 591 602 567 532 499 532 574 599 634 601 518 486 428 383 346 393 429 488 458 386 359 321 283 233 262 337 417 439 423 400 365 290 267 271 231 215 143 31 -95 -225 -257 -271 -300 -300 -300 -300 -300 -300 -300 -300 -300 -300 -300 -300 -300 -300 -300 -300 -300 -300 -300 -300 -300 -300 -300 -300 -300 -300 -300 -300 -300 -300 -300 -300 -300 -300 -300 -300 -300 -300 -300 -300 -300 -300 -261 -223 -179 -155 -129 -169 -203 -161 -111 -140 -190 -170 -136
-200 -130 -7 97 211 192 200 188 128 89 72 30 0 16 47 -14 -144 -252 -300 -300 -300 -300 -300 -300 -300 -300 -282 -275 -300 -300 -300 -300 -300 -300 -300 -300 -300 -300 -250 -256 -282 -192 -146 -95 -53 9 -25 -29 -60 -24 -49 -64 -45 -3 8 2 -6 22 64 108 156 236 264 205 246 283 259 267 322 324 360 473 575 662 763 828 882 914 908 934 917 843 764 680 640 611 577 488 407 296 232 137 67 -6 -68 -103 -129 -191 -210 -271 -260 -240 -285 -300 -300 -300 -300 -300 -300 -300 -300 -300 -300 -300 -300 -300 -300 -300 -300 -300 -300 -300 -300 -300 -300 -300 -300 -300 -300 -300 -300 -300 -300 -300 -300 -300 -300 -300 -300 -300 -300 -300 -300 -300 -300 -300 -300 -264 -222 -197 -169 -127 -91 -55 40 158 311 453 542 562 611 568 570 530 509 526 510 550 530 497 492 460 451 388 408 451 490 462 410 359 308 272 206 199 294 423 462 475 456 450 386 373 336 315 304 243 154 14 -99 -221 -248 -263 -300 -300 -300 -300 -300 -300 -300 -300 -300 -300 -300 -300 -300 -300 -300 -300 -300 -300 -300 -300 -300 -300 -300 -300 -300 -300 -300 -300 -300 -300 -300 -300 -300 -300 -300 -300 -300 -300 -300 -300 -300 -300 -275 -218 -209 -216 -237 -260 -195 -134 -101 -123 -144 -169
-233 -142 -67 16 108 108 137 143 136 146 121 72 29 47 49 -12 -137 -230 -283 -300 -300 -300 -300 -300 -300 -300 -280 -252 -300 -300 -300 -300 -300 -300 -300 -300 -300 -300 -300 -300 -300 -289 -234 -224 -158 -94 -87 -118 -131 -108 -93 -84 -50 -42 -25 -73 -35 -20 46 110 171 208 210 154 187 248 246 246 262 257 271 382 510 623 706 796 877 871 880 858 901 872 782 709 636 597 578 549 411 311 223 129 74 11 -96 -118 -73 -135 -177 -256 -296 -300 -300 -300 -300 -300 -300 -300 -300 -300 -300 -300 -300 -300 -300 -300 -300 -300 -300 -300 -300 -300 -300 -300 -300 -300 -300 -300 -300 -300 -300 -300 -300 -300 -300 -300 -300 -300 -300 -300 -300 -300 -300 -300 -300 -300 -300 -295 -213 -211 -207 -172 -163 -151 -86 80 236 390 482 533 551 534 556 556 537 475 445 466 492 504 505 514 509 462 489 483 492 448 447 400 335 278 220 224 304 415 490 475 528 538 467 464 374 326 340 300 222 104 -56 -162 -236 -300 -300 -300 -300 -300 -300 -300 -300 -300 -300 -300 -300 -300 -300 -300 -300 -300 -300 -300 -300 -300 -300 -300 -300 -300 -300 -300 -300 -300 -300 -300 -300 -300 -300 -300 -300 -300 -300 -300 -300 -300 -300 -300 -300 -293 -262 -274 -295 -298 -196 -123 -91 -111 -116 -173
-242 -147 -76 16 121 135 113 104 81 90 86 87 34 15 -3 -42 -133 -176 -225 -274 -276 -245 -288 -300 -300 -300 -274 -224 -235 -287 -300 -300 -300 -300 -300 -300 -300 -300 -300 -300 -300 -300 -300 -300 -243 -220 -169 -155 -184 -180 -122 -83 -65 -87 -73 -77 -41 -10 37 101 174 176 133 103 145 178 190 236 240 239 259 334 450 606 688 766 838 839 850 811 834 784 739 709 621 587 599 554 412 311 227 112 45 11 -89 -142 -85 -137 -214 -271 -300 -300 -300 -300 -300 -300 -300 -300 -300 -300 -300 -300 -300 -300 -300 -300 -300 -300 -300 -300 -300 -300 -300 -300 -300 -300 -300 -300 -300 -300 -300 -300 -300 -300 -300 -300 -300 -300 -300 -300 -300 -300 -300 -300 -300 -300 -300 -300 -278 -271 -241 -212 -211 -203 -140 37 154 268 389 476 494 503 533 551 519 481 435 424 459 498 565 586 567 511 547 532 516 496 502 526 466 366 305 287 365 426 463 503 569 519 454 436 404 357 365 305 205 71 -67 -141 -270 -300 -300 -300 -300 -300 -300 -300 -300 -300 -300 -300 -300 -300 -300 -300 -300 -300 -300 -300 -300 -300 -300 -300 -300 -300 -300 -300 -300 -300 -300 -300 -300 -300 -300 -300 -300 -300 -300 -300 -300 -300 -300 -300 -300 -300 -300 -300 -300 -300 -244 -178 -135 -78 -107 -204
-265 -143 -68 19 104 137 153 136 101 55 61 61 23 -16 -42 -45 -108 -132 -164 -198 -209 -249 -262 -300 -278 -265 -231 -253 -245 -274 -300 -300 -300 -300 -300 -300 -300 -300 -300 -300 -300 -300 -300 -300 -300 -291 -273 -279 -300 -300 -265 -161 -161 -170 -188 -166 -112 -60 -32 3 92 78 32 55 62 110 143 198 202 214 223 261 418 506 587 623 711 747 762 726 727 726 709 723 672 629 614 540 451 339 260 131 73 2 -83 -151 -143 -192 -249 -220 -265 -300 -300 -300 -300 -300 -300 -300 -300 -300 -300 -300 -300 -300 -300 -300 -300 -300 -300 -300 -300 -300 -300 -300 -300 -300 -300 -300 -300 -300 -300 -300 -300 -300 -300 -300 -300 -300 -300 -300 -300 -300 -300 -300 -300 -300 -300 -300 -300 -300 -265 -209 -231 -221 -147 12 152 246 402 483 463 448 482 517 523 443 392 382 420 496 578 646 624 616 649 623 573 586 628 649 570 504 419 376 400 417 465 468 525 504 456 378 329 295 287 280 162 30 -107 -156 -265 -300 -300 -300 -300 -300 -300 -300 -300 -300 -300 -300 -300 -300 -300 -300 -300 -300 -300 -300 -300 -300 -300 -300 -300 -300 -300 -300 -300 -300 -300 -300 -300 -300 -300 -300 -300 -300 -300 -300 -300 -300 -300 -300 -300 -300 -300 -300 -300 -300 -265 -214 -147 -90 -120 -158
-287 -146 -79 6 88 139 142 155 126 42 8 5 -34 -70 -70 -20 -54 -45 -67 -113 -156 -164 -233 -282 -278 -248 -206 -247 -278 -276 -300 -300 -300 -300 -300 -300 -300 -300 -300 -300 -300 -300 -300 -300 -300 -300 -300 -300 -300 -300 -300 -300 -236 -249 -266 -216 -167 -136 -85 -46 12 13 -14 8 11 32 92 142 157 147 163 225 317 418 486 494 592 643 659 639 639 669 679 689 688 651 662 572 462 374 278 155 56 9 -75 -176 -219 -222 -242 -215 -230 -272 -300 -300 -300 -300 -300 -300 -300 -300 -300 -300 -300 -300 -300 -300 -300 -300 -300 -300 -300 -300 -300 -300 -300 -300 -300 -300 -300 -300 -300 -300 -300 -300 -300 -300 -300 -300 -300 -300 -300 -300 -300 -300 -300 -300 -300 -300 -300 -300 -285 -262 -244 -226 -142 0 145 253 379 460 429 439 467 519 505 401 345 353 418 467 580 712 701 696 727 686 644 679 706 729 656 605 534 466 451 471 454 465 499 492 402 357 274 244 253 246 110 -15 -107 -183 -288 -300 -300 -300 -300 -300 -300 -300 -300 -300 -300 -300 -300 -300 -300 -300 -300 -300 -300 -300 -300 -300 -300 -300 -300 -300 -300 -300 -300 -300 -300 -300 -300 -300 -300 -300 -300 -300 -300 -300 -300 -300 -300 -300 -300 -300 -300 -300 -300 -300 -280 -244 -151 -86 -72 -141
-298 -196 -129 -14 42 71 95 98 77 67 1 -23 -55 -71 -62 -35 -48 -76 -63 -59 -33 -70 -196 -255 -271 -226 -227 -263 -232 -223 -234 -300 -300 -300 -300 -300 -300 -300 -300 -300 -300 -300 -300 -300 -300 -300 -300 -300 -300 -300 -300 -300 -300 -300 -300 -255 -232 -205 -129 -60 -20 -54 -85 -54 -46 -59 -14 11 71 113 114 184 263 352 448 475 511 559 622 620 610 607 625 608 573 565 626 604 504 392 290 164 76 5 -95 -176 -271 -288 -271 -261 -268 -300 -300 -300 -300 -300 -300 -300 -300 -300 -300 -300 -300 -300 -300 -300 -300 -300 -300 -300 -300 -300 -300 -300 -300 -300 -300 -300 -300 -300 -300 -300 -300 -300 -300 -300 -300 -300 -300 -300 -300 -300 -300 -300 -300 -300 -300 -300 -300 -300 -300 -300 -253 -248 -136 17 185 274 370 416 378 383 404 443 418 386 374 420 501 516 594 747 765 749 761 755 732 786 797 798 743 679 623 593 556 555 539 492 464 451 401 373 324 299 283 213 88 37 -104 -230 -300 -300 -300 -300 -300 -300 -300 -300 -300 -300 -300 -300 -300 -300 -300 -300 -300 -300 -300 -300 -300 -300 -300 -300 -300 -300 -300 -300 -300 -300 -300 -300 -300 -300 -300 -300 -300 -300 -300 -300 -300 -300 -300 -300 -300 -300 -300 -300 -300 -300 -300 -292 -212 -151 -129 -199
-300 -239 -174 -86 -13 5 30 37 49 22 -71 -116 -171 -155 -171 -169 -93 -98 -46 -38 18 -42 -109 -197 -188 -200 -207 -202 -208 -243 -237 -300 -300 -300 -300 -300 -300 -300 -300 -300 -300 -300 -300 -300 -300 -300 -300 -300 -300 -300 -300 -300 -300 -300 -300 -300 -260 -245 -188 -118 -68 -135 -174 -153 -114 -123 -80 -57 -6 63 90 149 226 360 387 405 407 479 515 542 504 532 544 529 514 537 595 547 477 418 367 221 80 1 -120 -247 -283 -300 -300 -300 -300 -300 -300 -300 -300 -300 -300 -300 -300 -300 -300 -300 -300 -300 -300 -300 -300 -300 -300 -300 -300 -300 -300 -300 -300 -300 -300 -300 -300 -300 -300 -300 -300 -300 -300 -300 -300 -300 -300 -300 -300 -300 -300 -300 -300 -300 -300 -300 -300 -300 -300 -300 -233 -201 -148 7 132 191 313 363 384 343 334 366 374 400 389 478 587 608 648 734 764 780 785 802 805 838 809 789 773 734 670 644 631 608 583 563 491 493 464 408 346 345 315 235 126 75 -30 -197 -278 -300 -300 -300 -300 -300 -300 -300 -300 -300 -300 -300 -300 -300 -300 -300 -300 -300 -300 -300 -300 -300 -300 -300 -300 -300 -300 -300 -300 -300 -300 -300 -300 -300 -300 -300 -300 -300 -300 -300 -300 -300 -300 -300 -300 -300 -300 -300 -300 -295 -300 -292 -278 -195 -199 -203
-300 -292 -235 -193 -119 -93 -19 30 3 -49 -100 -164 -207 -251 -264 -241 -161 -130 -71 -67 -23 -30 -30 -103 -97 -135 -118 -157 -207 -213 -292 -300 -300 -300 -300 -300 -300 -300 -300 -300 -300 -300 -300 -300 -300 -300 -300 -300 -300 -300 -300 -300 -300 -300 -300 -300 -300 -271 -213 -181 -148 -168 -197 -202 -166 -182 -141 -126 -50 40 52 132 251 348 336 340 325 390 456 434 420 464 482 467 490 493 495 492 439 390 379 259 88 -30 -177 -300 -300 -300 -300 -300 -300 -300 -300 -300 -300 -300 -300 -300 -300 -300 -300 -300 -300 -300 -300 -300 -300 -300 -300 -300 -300 -300 -300 -300 -300 -300 -300 -300 -300 -300 -300 -300 -300 -300 -300 -300 -300 -300 -300 -300 -300 -300 -300 -300 -300 -300 -300 -300 -300 -300 -300 -300 -244 -219 -151 -38 30 111 269 334 362 317 284 271 331 379 433 524 609 646 658 683 749 775 818 827 849 855 761 768 789 741 700 678 671 633 645 605 573 549 503 472 427 428 363 297 239 149 67 -98 -207 -256 -300 -300 -300 -300 -300 -300 -300 -300 -300 -300 -300 -300 -300 -300 -300 -300 -300 -300 -300 -300 -300 -300 -300 -300 -300 -300 -300 -300 -300 -300 -300 -300 -300 -300 -300 -300 -300 -300 -300 -300 -300 -300 -300 -300 -300 -300 -300 -300 -300 -300 -300 -282 -224 -227
-300 -300 -300 -300 -240 -196 -122 -55 -63 -78 -104 -175 -176 -247 -247 -224 -153 -89 -35 -57 -66 -76 -56 -59 -29 -66 -120 -194 -191 -211 -300 -300 -300 -300 -300 -300 -300 -300 -300 -300 -300 -300 -300 -300 -300 -300 -300 -300 -300 -300 -300 -300 -300 -300 -300 -300 -300 -300 -249 -194 -199 -191 -193 -245 -244 -256 -199 -154 -136 -71 -22 58 170 288 294 307 295 349 356 355 413 401 397 358 340 351 385 377 360 378 348 257 130 -14 -182 -291 -300 -300 -300 -300 -300 -300 -300 -300 -300 -300 -300 -300 -300 -300 -300 -300 -300 -300 -300 -300 -300 -300 -300 -300 -300 -300 -300 -300 -300 -300 -300 -300 -300 -300 -300 -300 -300 -300 -300 -300 -300 -300 -300 -300 -300 -300 -300 -300 -300 -300 -300 -300 -300 -300 -300 -300 -282 -197 -170 -119 -2 73 182 253 315 272 275 248 266 298 400 471 535 600 662 661 713 768 838 887 870 835 759 708 692 716 731 748 741 667 636 628 658 629 563 557 529 533 437 378 386 310 149 -18 -103 -188 -300 -300 -300 -300 -300 -300 -300 -300 -300 -300 -300 -300 -300 -300 -300 -300 -300 -300 -300 -300 -300 -300 -300 -300 -300 -300 -300 -300 -300 -300 -300 -300 -300 -300 -300 -300 -300 -300 -300 -300 -300 -300 -300 -300 -300 -300 -300 -300 -300 -300 -300 -300 -300 -300
-300 -300 -300 -300 -300 -300 -232 -224 -113 -65 -117 -155 -163 -200 -231 -243 -162 -110 -95 -136 -149 -135 -77 -40 -84 -112 -185 -216 -252 -295 -300 -300 -300 -300 -300 -300 -300 -300 -300 -300 -300 -300 -300 -300 -300 -300 -300 -300 -300 -300 -300 -300 -300 -300 -300 -300 -300 -300 -219 -192 -196 -204 -228 -300 -300 -275 -260 -180 -150 -86 -25 24 113 192 257 226 213 262 295 284 308 315 273 247 237 264 288 302 351 333 299 273 137 -15 -164 -264 -300 -300 -300 -300 -300 -300 -300 -300 -300 -300 -300 -300 -300 -300 -300 -300 -300 -300 -300 -300 -300 -300 -300 -300 -300 -300 -300 -300 -300 -300 -300 -300 -300 -300 -300 -300 -300 -300 -300 -300 -300 -300 -300 -300 -300 -300 -300 -300 -300 -300 -300 -300 -300 -300 -300 -300 -300 -243 -207 -145 -27 49 119 187 253 242 227 206 222 254 337 413 501 574 644 705 767 808 834 890 897 840 754 697 668 675 698 760 767 708 653 657 681 671 621 573 600 606 550 489 445 366 227 49 -28 -123 -248 -300 -300 -300 -300 -300 -300 -300 -300 -300 -300 -300 -300 -300 -300 -300 -300 -300 -300 -300 -300 -300 -300 -300 -300 -300 -300 -300 -300 -300 -300 -300 -300 -300 -300 -300 -300 -300 -300 -300 -300 -300 -300 -300 -300 -300 -300 -300 -300 -300 -300 -300 -300 -300
-300 -300 -300 -300 -300 -300 -300 -300 -179 -114 -135 -157 -191 -221 -237 -249 -218 -158 -170 -212 -196 -112 -54 -12 -86 -157 -212 -266 -282 -300 -300 -300 -300 -300 -300 -300 -300 -300 -300 -300 -300 -300 -300 -300 -300 -300 -300 -300 -300 -300 -300 -300 -300 -300 -300 -300 -300 -300 -253 -202 -200 -246 -300 -300 -300 -300 -300 -236 -135 -19 19 42 98 117 124 74 103 158 156 175 184 131 85 85 159 188 227 216 271 297 252 189 75 -55 -194 -252 -300 -300 -300 -300 -300 -300 -300 -300 -300 -300 -300 -300 -300 -300 -300 -300 -300 -300 -300 -300 -300 -300 -300 -300 -300 -300 -300 -300 -300 -300 -300 -300 -300 -300 -300 -300 -300 -300 -300 -300 -300 -300 -300 -300 -300 -300 -300 -300 -300 -300 -300 -300 -300 -300 -300 -300 -300 -297 -266 -207 -100 -20 32 89 150 158 137 123 192 229 302 422 483 554 665 723 769 820 832 882 893 830 750 660 602 591 666 740 747 708 680 686 718 673 619 596 653 653 578 543 497 408 294 128 28 -23 -164 -300 -300 -300 -300 -300 -300 -300 -300 -300 -300 -300 -300 -300 -300 -300 -300 -300 -300 -300 -300 -300 -300 -300 -300 -300 -300 -300 -300 -300 -300 -300 -300 -300 -300 -300 -300 -300 -300 -300 -300 -300 -300 -300 -300 -300 -300 -300 -300 -300 -300 -300 -300 -300
